# .PCD v0.7 - Point Cloud Data file format
VERSION 0.7
FIELDS x y z rgb
SIZE 4 4 4 4
TYPE F F F F
COUNT 1 1 1 1
WIDTH 1004
HEIGHT 1
VIEWPOINT 0 0 0 1 0 0 0
POINTS 1004
DATA ascii
0.52064312 -0.015382807 0.66160405 8.4488656e-39
0.52370912 -0.012496442 0.66177875 8.7243721e-39
0.52778846 -0.0086917579 0.66135639 8.7243721e-39
0.53107095 -0.0056057191 0.66207689 8.7243721e-39
0.53455275 -0.0026602272 0.66099483 8.8201691e-39
0.53799003 0.0005748421 0.66178083 8.7243721e-39
0.54199159 0.0041697733 0.66186714 8.7243721e-39
0.54964697 0.010997669 0.66109258 8.7243721e-39
0.55668694 0.017166382 0.66165102 8.7243721e-39
0.56371403 0.023354856 0.66161656 8.7243721e-39
0.56858832 0.027696967 0.66183978 8.7243721e-39
0.58535212 0.022954892 0.65880734 8.7243721e-39
0.57165486 0.030511495 0.66143978 8.7243721e-39
0.57516646 0.033626534 0.6609785 8.7243721e-39
0.57848912 0.03660908 0.66146094 8.7243721e-39
0.58245671 0.040117852 0.66114932 8.7243721e-39
0.58652961 0.043628559 0.66230983 8.7243721e-39
0.5896607 0.045995232 0.66258156 8.7243721e-39
0.45115751 0.18833065 0.66329277 5.4391848e-39
0.45769194 0.19508727 0.66166461 7.7480511e-39
0.46789789 0.19505516 0.65808702 6.9146722e-39
0.4697465 0.19517574 0.65922964 6.8224766e-39
0.45233205 0.19972023 0.66092205 8.0242792e-39
0.4556503 0.19662482 0.66148329 6.1821757e-39
0.43451321 0.20326878 0.66419345 6.2729308e-39
0.44645533 0.20761926 0.66189718 8.3008633e-39
0.44877538 0.20405149 0.66187066 8.4852532e-39
0.44040528 0.21646082 0.66217971 4.7059806e-39
0.44279495 0.2131241 0.6613571 5.5360944e-39
0.43737429 0.22063759 0.66165668 5.8130386e-39
0.43216646 0.22780393 0.66206044 8.4848944e-39
0.43449903 0.22450602 0.65985453 9.0377053e-39
0.42949995 0.23446001 0.66157466 8.5770887e-39
0.42860693 0.24190417 0.66183496 6.4584011e-39
0.43158603 0.24750546 0.66112179 5.8101324e-39
0.43555993 0.25185588 0.6621716 6.0852689e-39
0.43776399 0.25343037 0.6639092 6.1774659e-39
0.52366287 -0.29768848 0.66863829 2.8599577e-39
0.53677273 -0.29818064 0.66820055 2.8599577e-39
0.52484572 -0.29346135 0.66811335 2.8599577e-39
0.52577168 -0.29029673 0.66853869 2.9517932e-39
0.52713126 -0.28345281 0.66905707 9.1277555e-39
0.52771431 -0.27650976 0.66787225 1.1524815e-38
0.52860039 -0.26962858 0.66908085 9.5858162e-39
0.52942771 -0.26250899 0.66831166 5.8922176e-39
0.53038675 -0.25541973 0.66848511 5.8914988e-39
0.53136265 -0.24859084 0.66845167 5.8914988e-39
0.53170502 -0.24355589 0.66582167 5.9836944e-39
0.53253436 -0.24105565 0.66927403 5.9836944e-39
0.53321636 -0.23458789 0.66853935 5.983693e-39
0.5339632 -0.22755766 0.66841519 5.9836944e-39
0.53480607 -0.22067896 0.66898125 5.8914988e-39
0.53532565 -0.21356682 0.66806895 6.0773319e-39
0.53577226 -0.20613138 0.66827565 7.0947307e-39
0.51032084 -0.20276211 0.67116112 4.2425082e-39
0.53620529 -0.19932924 0.66838264 1.1431898e-38
0.53679216 -0.19218625 0.66848505 1.0787259e-38
0.53781956 -0.18542285 0.6685968 3.1365404e-39
0.53890699 -0.1810333 0.66842669 2.8599577e-39
0.53996551 -0.17771326 0.66856247 2.8599577e-39
0.56505227 -0.17640832 0.66978711 2.8599577e-39
0.54243875 -0.17172809 0.66873813 2.8599577e-39
0.54472893 -0.16600221 0.66746521 2.8599577e-39
0.54692394 -0.16315371 0.66954064 2.8599577e-39
0.54910344 -0.15874888 0.66827017 2.8599577e-39
0.556835 -0.15725252 0.66540152 3.1365544e-39
0.57211387 -0.16063628 0.66907293 3.1365544e-39
0.56274456 -0.13860366 0.66829854 3.1365544e-39
0.53173196 -0.084062941 0.66775793 8.8165678e-39
0.52822292 -0.08054211 0.66867256 8.7243721e-39
0.52108204 -0.073251531 0.66839367 8.7243721e-39
0.51471514 -0.065903164 0.66806519 8.9127249e-39
0.48795271 -0.062948748 0.66723686 1.1524452e-38
0.50816494 -0.059509881 0.66940075 8.7243721e-39
0.51101059 -0.062298708 0.66529942 8.7243721e-39
0.54255027 -0.056300748 0.67120349 9.1914726e-39
0.50160515 -0.051462192 0.66835839 9.6427271e-39
0.50458038 -0.055511072 0.66798592 8.7243721e-39
0.49926269 -0.045304496 0.66649717 1.0101905e-38
0.4984732 -0.037961639 0.66786122 8.6332569e-39
0.52032095 -0.036084004 0.67145419 1.6687054e-38
0.50161976 -0.031940885 0.66915268 7.2550042e-39
0.5049364 -0.028887756 0.66878814 6.4284847e-39
0.50791132 -0.026182575 0.66856563 6.5203202e-39
0.51205504 -0.022624157 0.66855609 6.0611427e-39
0.51599783 -0.019051217 0.66873193 7.6223462e-39
0.51994371 -0.015454039 0.66893983 8.7243721e-39
0.4978343 -0.010051528 0.67084748 8.0815237e-39
0.52348983 -0.01230121 0.66869497 8.7243721e-39
0.52753842 -0.0087282415 0.66764915 8.7243721e-39
0.53075981 -0.0058372524 0.6690951 8.7243721e-39
0.53437865 -0.0025865764 0.66871113 8.7243721e-39
0.53777581 0.0016576153 0.66903305 8.7243721e-39
0.54259729 0.0048855231 0.6684109 8.7243721e-39
0.54936749 0.010847918 0.66875118 8.7243721e-39
0.55640548 0.016927039 0.66858131 8.7243721e-39
0.56424499 0.023837181 0.6680693 8.7243721e-39
0.56843936 0.027667047 0.66857225 8.7243721e-39
0.57166439 0.030724784 0.66899556 8.7243721e-39
0.57534945 0.034210078 0.66885352 8.7243721e-39
0.57844782 0.03685971 0.66831058 8.9080431e-39
0.58311862 0.040154416 0.66778547 9.0917141e-39
0.5862661 0.04256333 0.6668207 9.3672206e-39
0.59107959 0.044695087 0.66767037 9.7345626e-39
0.59569269 0.04598809 0.66945338 9.7352829e-39
0.45974451 0.19477227 0.66899276 7.6554925e-39
0.46356085 0.1939126 0.6717087 7.9302703e-39
0.45194921 0.20016249 0.66810149 6.1821757e-39
0.45632195 0.19655716 0.66851968 6.1821757e-39
0.44658965 0.20764613 0.66844565 6.1821757e-39
0.44889617 0.20424685 0.66927123 6.1821757e-39
0.44057229 0.21644859 0.66826361 1.6642745e-39
0.44319767 0.212782 0.66874242 1.8519e-39
0.45505628 0.21669403 0.66793948 6.7349879e-39
0.43763903 0.22048101 0.66829008 1.5753159e-39
0.43198976 0.22816208 0.66865283 6.1821757e-39
0.43455279 0.22467326 0.66934663 3.6911196e-39
0.42932326 0.23484431 0.66909599 6.2743699e-39
0.42955253 0.24159531 0.66952503 6.0899787e-39
0.43317252 0.24920212 0.66760689 4.9792857e-39
0.43531394 0.2515521 0.67077392 5.7168479e-39
0.43997043 0.25500655 0.6656487 6.3618572e-39
0.52408755 -0.29734564 0.6755259 2.8599577e-39
0.52617222 -0.29021561 0.67524534 4.795326e-39
0.52778071 -0.28349817 0.67598736 1.1708845e-38
0.52850652 -0.27623338 0.67512959 1.1801041e-38
0.52940995 -0.2695412 0.67581618 1.069325e-38
0.53021997 -0.26247779 0.67523998 6.2613617e-39
0.53115004 -0.25553679 0.67556679 5.983693e-39
0.53180748 -0.25013584 0.67444271 5.8918575e-39
0.53231251 -0.24737877 0.67536962 5.8914988e-39
0.53326368 -0.24136521 0.67609257 5.8914988e-39
0.53421849 -0.23409055 0.674968 5.8914988e-39
0.53529513 -0.22750142 0.67611408 5.8914988e-39
0.53588307 -0.2204653 0.67494839 5.9836944e-39
0.53657603 -0.21360521 0.67577863 5.8918575e-39
0.53688455 -0.20670471 0.67556089 6.3539188e-39
0.53731388 -0.19946259 0.6759913 1.1708485e-38
0.53763896 -0.19252507 0.67516869 1.0786899e-38
0.53817219 -0.18589514 0.67503273 3.5049599e-39
0.53933144 -0.18333881 0.67739153 2.8599577e-39
0.53897333 -0.18180072 0.67355728 2.8599577e-39
0.5409224 -0.17837161 0.67566442 2.8599577e-39
0.54384392 -0.17143451 0.67571974 2.8599577e-39
0.54556298 -0.1670737 0.67381287 2.8599577e-39
0.54709947 -0.1641106 0.67587084 2.8599577e-39
0.54962891 -0.15848458 0.67583889 2.8599577e-39
0.53414178 -0.085027009 0.67749226 1.0499498e-38
0.52733845 -0.079694733 0.67576301 9.8440446e-39
0.53231382 -0.083635077 0.67349339 9.0052806e-39
0.51044124 -0.07473436 0.67550671 9.3751435e-39
0.52191854 -0.074236453 0.67540187 9.2894303e-39
0.51431954 -0.066116802 0.67504215 8.8259312e-39
0.5077672 -0.058776923 0.67547899 8.9213681e-39
0.54362917 -0.062246464 0.67699802 1.2631565e-38
0.50154769 -0.051595189 0.67520773 9.8444048e-39
0.50449681 -0.055086087 0.67468148 9.4723811e-39
0.496077 -0.044160642 0.67709732 1.0598535e-38
0.49826223 -0.047767706 0.67586917 1.040226e-38
0.49656218 -0.040230989 0.6731112 8.4801987e-39
0.49944773 -0.03771412 0.67484182 6.6139564e-39
0.50296402 -0.033345055 0.67558426 5.7856363e-39
0.50548428 -0.030283656 0.67438257 5.7856363e-39
0.50893664 -0.025893275 0.67557502 6.4284847e-39
0.5121094 -0.022385558 0.6752947 7.0713332e-39
0.51604706 -0.018839993 0.67521173 8.6325366e-39
0.52029693 -0.014967553 0.67524517 8.7243721e-39
0.52342612 -0.012118724 0.67531562 8.7243721e-39
0.5268054 -0.009093821 0.67584467 8.7243721e-39
0.53001016 -0.0062163668 0.67586088 8.7243721e-39
0.53466594 -0.0020450731 0.67530292 8.7243721e-39
0.53784919 0.00079987012 0.67506933 8.7243721e-39
0.5416258 0.0042055268 0.67544049 8.7243721e-39
0.54470795 0.0070236814 0.67753446 8.7243721e-39
0.54913533 0.010908953 0.67555541 8.7243721e-39
0.55664873 0.017435284 0.67533898 8.7243721e-39
0.5635016 0.023388142 0.67562687 8.7243721e-39
0.56841922 0.02763872 0.67507637 8.7243721e-39
0.57218134 0.03111973 0.67527133 8.7243721e-39
0.57538253 0.034150656 0.67527705 8.7243721e-39
0.57887119 0.03742706 0.67605174 8.7243721e-39
0.58237731 0.040715996 0.67682743 8.7243721e-39
0.57343352 0.04431054 0.67262584 1.1063115e-38
0.58413529 0.042366691 0.67721725 8.7243721e-39
0.44758049 0.19266459 0.67333597 6.3662054e-39
0.45945978 0.19467814 0.67648089 8.3001346e-39
0.46739778 0.19441636 0.67234087 7.1912591e-39
0.45216274 0.2001375 0.67555821 6.6424322e-39
0.45601669 0.19674583 0.67436355 7.1956018e-39
0.44657093 0.20782025 0.67548949 6.0892626e-39
0.44887471 0.20436589 0.67565423 6.1821757e-39
0.44063419 0.21648067 0.67534423 2.7659292e-39
0.44315043 0.21301253 0.67597896 3.3187358e-39
0.4376514 0.22045191 0.67541718 2.3978739e-39
0.47695488 0.21985187 0.67639351 5.2529859e-39
0.43223903 0.22828297 0.67551255 6.181817e-39
0.43443263 0.22498617 0.67562532 4.5205146e-39
0.43037257 0.2340356 0.67580658 6.1821757e-39
0.41414773 0.23813908 0.67427468 5.3513444e-39
0.42934725 0.2414213 0.67637342 6.1821743e-39
0.43082458 0.24704069 0.67431283 6.1803624e-39
0.43521881 0.25114971 0.67632186 6.4547745e-39
0.43704063 0.25286257 0.6732741 6.3618572e-39
0.52398032 -0.29777929 0.68249136 2.8599577e-39
0.52505565 -0.294761 0.68468851 2.8599577e-39
0.5262605 -0.29064727 0.68240118 5.6250783e-39
0.5380953 -0.29316163 0.67941761 9.4936233e-39
0.52822107 -0.2836886 0.6829412 1.1801041e-38
0.52908367 -0.27656397 0.68171686 1.1340067e-38
0.53013057 -0.26946765 0.68291694 1.1708845e-38
0.53095394 -0.26241606 0.68231636 1.0878001e-38
0.53163785 -0.25676185 0.68241841 9.1244779e-39
0.53216082 -0.25328472 0.68325216 9.3088691e-39
0.5327875 -0.2483699 0.68223566 7.5542669e-39
0.53386664 -0.24161062 0.683007 7.1854816e-39
0.53490072 -0.23434435 0.68213081 6.2620819e-39
0.53604198 -0.22736895 0.68265188 7.1851228e-39
0.53706032 -0.22016804 0.68234438 7.6468227e-39
0.53741783 -0.21339752 0.68269974 8.6635067e-39
0.53800452 -0.2064669 0.68277562 1.115531e-38
0.53823239 -0.19952844 0.68209141 1.1708845e-38
0.53852361 -0.19288459 0.68190044 1.1616651e-38
0.53921968 -0.18984418 0.68523836 8.3905576e-39
0.5386045 -0.18766114 0.68051052 6.2704407e-39
0.53961575 -0.18491451 0.68322086 3.1365404e-39
0.5412488 -0.17865904 0.68280864 2.8599577e-39
0.54344982 -0.17167884 0.6827926 2.8599577e-39
0.54503578 -0.16490239 0.68436927 2.8599577e-39
0.54710007 -0.16376099 0.68080467 2.8599577e-39
0.5772723 -0.1644102 0.68262553 3.22728e-39
0.54945976 -0.15768495 0.68283433 2.8599577e-39
0.55577207 -0.15616313 0.68358994 3.0443545e-39
0.53196031 -0.084141783 0.68557036 1.456691e-38
0.53349167 -0.085233375 0.68351394 1.2907388e-38
0.52453166 -0.07731922 0.68540275 1.1616648e-38
0.52849466 -0.080813393 0.68257177 1.1616285e-38
0.51763278 -0.070662059 0.68463194 9.0348116e-39
0.52114344 -0.073727384 0.68272024 1.0048603e-38
0.51419842 -0.066635519 0.68255222 9.0344515e-39
0.50812542 -0.059746675 0.68249726 9.1270072e-39
0.50194812 -0.051893741 0.68267828 1.1616648e-38
0.50444818 -0.055185542 0.68513042 1.1524454e-38
0.49624404 -0.043587759 0.68089008 1.106239e-38
0.49864313 -0.046498936 0.68311757 1.1616647e-38
0.58714002 -0.046385743 0.68543977 1.9821696e-38
0.49614194 -0.041218128 0.68285227 1.0784368e-38
0.49838284 -0.038062964 0.68306154 7.7332674e-39
0.50250155 -0.032139104 0.68348515 6.9827389e-39
0.50528526 -0.029401196 0.68135715 6.245534e-39
0.50857311 -0.025430748 0.68272233 7.163889e-39
0.51193303 -0.02328508 0.683236 9.8386412e-39
0.51591742 -0.018616544 0.68186998 8.817288e-39
0.52006531 -0.014897701 0.68255132 8.8180083e-39
0.52340502 -0.0119058 0.68309617 8.9109242e-39
0.52676928 -0.0089314478 0.68235195 8.8176482e-39
0.5019843 -0.00020107627 0.68127769 9.1885915e-39
0.53032589 -0.0057726782 0.68214071 8.5425046e-39
0.53436595 -0.0021280509 0.68233711 7.7163579e-39
0.53775066 0.00093324977 0.68292969 7.2582678e-39
0.54095858 0.0037801042 0.68269068 7.5330512e-39
0.54463065 0.0070863753 0.68277228 7.5330498e-39
0.54893935 0.010968585 0.68223721 7.3497418e-39
0.5557245 0.017034149 0.68306834 6.892372e-39
0.56371927 0.023865558 0.68234378 9.0974763e-39
0.56813383 0.027608002 0.68184662 9.0981965e-39
0.57186651 0.030838545 0.6822536 9.2840283e-39
0.57540399 0.034079712 0.68292713 9.3780246e-39
0.5829649 0.030375479 0.68549538 4.0588904e-39
0.5786249 0.037112791 0.6829325 9.4702202e-39
0.58235478 0.040642403 0.68196303 9.2840283e-39
0.58511269 0.043115366 0.68239713 9.3776645e-39
0.588462 0.045597762 0.68339634 9.7507686e-39
0.45949078 0.19520964 0.6828357 7.0112091e-39
0.46353784 0.19350697 0.68258095 9.0369766e-39
0.45259416 0.19989514 0.68247986 8.3927002e-39
0.45624185 0.19701059 0.68260562 7.5643843e-39
0.44646192 0.20811391 0.68256968 7.2870785e-39
0.44909462 0.20436092 0.68248177 8.6692843e-39
0.44076994 0.21614444 0.68178898 2.2138442e-39
0.44298294 0.21306929 0.68275142 4.6065739e-39
0.43765679 0.22046734 0.68265653 3.2258213e-39
0.4325442 0.22834063 0.68251199 8.3005046e-39
0.43462411 0.22485432 0.68264848 4.7045457e-39
0.42961001 0.23445117 0.68306339 8.3927002e-39
0.42889625 0.24194273 0.68240088 6.6413434e-39
0.43194786 0.24704179 0.68206626 6.1778303e-39
0.43456143 0.25018138 0.68408209 6.3622201e-39
0.43962592 0.254022 0.68101519 7.2838149e-39
0.52424234 -0.2987304 0.68903911 2.8599577e-39
0.52533859 -0.29572177 0.69024849 2.8599577e-39
0.52676058 -0.29072398 0.68957227 4.7031318e-39
0.52857095 -0.28356156 0.69012052 1.1616651e-38
0.52954763 -0.27625927 0.68912536 1.1801041e-38
0.53056157 -0.26946923 0.68998659 1.1801041e-38
0.53136253 -0.26297164 0.68891501 1.1801041e-38
0.5321638 -0.25987861 0.69206876 1.1801041e-38
0.53185064 -0.25860399 0.68826443 1.1801041e-38
0.5328576 -0.25522363 0.69002819 1.1525174e-38
0.53347707 -0.24824332 0.68930537 1.1708845e-38
0.53455919 -0.24164264 0.68990701 1.1708845e-38
0.53557259 -0.23459789 0.68917173 1.1616289e-38
0.53666073 -0.22743958 0.68947291 1.1708845e-38
0.53761375 -0.22042194 0.68957651 1.1708845e-38
0.53012478 -0.21017064 0.69027054 1.0324104e-38
0.538445 -0.21354786 0.68946809 1.1801041e-38
0.5578751 -0.21010055 0.68816704 6.9175982e-39
0.53871763 -0.20665373 0.68802309 1.1801041e-38
0.53915739 -0.20692857 0.69124311 1.1801041e-38
0.53884 -0.19993022 0.68659127 1.1801041e-38
0.53950202 -0.19956754 0.69060755 1.1708845e-38
0.53975773 -0.19295402 0.6896593 7.7451938e-39
0.54034132 -0.18566754 0.68968499 2.8599577e-39
0.54176265 -0.1786394 0.68955916 2.8599577e-39
0.54382187 -0.17177647 0.69005382 2.8599577e-39
0.54499412 -0.16556004 0.68819892 2.8599577e-39
0.54718089 -0.1641183 0.69108516 2.9517946e-39
0.54944015 -0.1587014 0.68930012 2.8599577e-39
0.55714798 -0.15713139 0.68943864 3.0443545e-39
0.56428671 -0.15806091 0.69049847 3.0443545e-39
0.53763473 -0.14456552 0.68973148 2.8728917e-39
0.50502068 -0.085407615 0.68831468 1.6410459e-38
0.5355891 -0.084235564 0.68836176 1.4382518e-38
0.53922284 -0.084329456 0.69115704 1.4198487e-38
0.52403796 -0.077019013 0.68862557 1.1708845e-38
0.52888989 -0.08010406 0.68995106 1.4197765e-38
0.53427041 -0.082026362 0.69112599 1.4566549e-38
0.51720726 -0.070200853 0.69032174 8.9429761e-39
0.52126634 -0.074339963 0.69049191 1.1063476e-38
0.51380789 -0.06624569 0.68969244 8.9429761e-39
0.50813228 -0.059697356 0.68954086 8.9429761e-39
0.50191832 -0.051698949 0.68999851 1.1708482e-38
0.50472063 -0.055658013 0.68986583 1.1432258e-38
0.49658436 -0.043050811 0.69121206 1.1616648e-38
0.4996146 -0.045718063 0.68687856 1.1616282e-38
0.54529363 -0.045849342 0.6862517 1.2447929e-38
0.49634877 -0.039410755 0.68898898 1.0602856e-38
0.49860319 -0.037901886 0.69048798 9.956042e-39
0.50176454 -0.033315048 0.68963623 1.0780045e-38
0.50538349 -0.029735988 0.69020897 1.0782566e-38
0.50875396 -0.025830666 0.68956339 1.0777521e-38
0.51226252 -0.022032507 0.68951583 1.0869718e-38
0.51611149 -0.018379625 0.68928742 1.059097e-38
0.51976109 -0.015066876 0.68936485 1.0683166e-38
0.52255124 -0.012438902 0.69064426 1.1150265e-38
0.5265612 -0.0087605715 0.68901938 1.059097e-38
0.52981156 -0.0057466328 0.68972355 9.3042126e-39
0.53374046 -0.0021573305 0.69018251 3.2262137e-39
0.54133457 -0.005666676 0.69144315 1.9729496e-38
0.53781515 0.0015756177 0.69048136 3.0429056e-39
0.54130298 0.0045344713 0.68914604 3.4095203e-39
0.54487914 0.0077965879 0.6903258 3.1347397e-39
0.54919755 0.011503076 0.69003457 3.1347383e-39
0.64198261 0.007916484 0.68657845 1.5120443e-38
0.55636191 0.017457381 0.6903404 4.8860769e-39
0.56345344 0.023407517 0.68911928 1.1335741e-38
0.56827474 0.027576394 0.6892789 1.1429015e-38
0.57183141 0.030786088 0.68989676 1.1522647e-38
0.575418 0.034009423 0.69049859 1.1524089e-38
0.57879543 0.037087474 0.68970788 1.152265e-38
0.58260012 0.039988216 0.69051594 1.1523731e-38
0.58615452 0.042907547 0.68926126 1.1523371e-38
0.58955425 0.045178473 0.68990409 1.1523731e-38
0.57127327 0.056039877 0.69239193 8.8162076e-39
0.46113291 0.19518849 0.68839902 6.6427909e-39
0.46440491 0.19393599 0.68922883 8.9447838e-39
0.45237622 0.20077546 0.68936801 6.1821757e-39
0.45758551 0.19749841 0.68957686 6.1821757e-39
0.44664028 0.20778522 0.68984145 5.9977858e-39
0.44899985 0.20414086 0.68951088 6.1821757e-39
0.44054219 0.21635836 0.68874425 2.0301774e-39
0.4430429 0.21290442 0.68955362 3.1368711e-39
0.43773967 0.22042942 0.68976951 2.8595681e-39
0.43283501 0.22823547 0.68957448 6.0899801e-39
0.43482345 0.22473042 0.68957478 4.6137864e-39
0.42965576 0.23447675 0.6895954 7.2874372e-39
0.42903969 0.24076365 0.6895259 6.640979e-39
0.4329412 0.24713257 0.68913597 5.9012406e-39
0.43510175 0.25045735 0.68802565 5.9934348e-39
0.43763793 0.25232458 0.69085842 5.9016007e-39
0.44154358 0.25481912 0.68973917 5.9015993e-39
0.52564836 -0.29647729 0.69656181 2.8599577e-39
0.52727956 -0.29030216 0.69655901 3.4127657e-39
0.52909547 -0.28336704 0.69680589 1.1432261e-38
0.53035611 -0.27654642 0.69634342 1.1801041e-38
0.53139287 -0.26944363 0.6964463 1.1801041e-38
0.53185415 -0.26386452 0.69395155 1.1801041e-38
0.53255671 -0.26216832 0.69762403 1.1801041e-38
0.53330618 -0.25557944 0.69642675 1.1801041e-38
0.53430861 -0.24854422 0.69657958 1.1801041e-38
0.53525978 -0.24142769 0.69636184 1.1801041e-38
0.53619987 -0.23450822 0.69685 1.1801041e-38
0.53709286 -0.22742315 0.69628495 1.1801041e-38
0.53802842 -0.22065639 0.69657522 1.1708845e-38
0.53872383 -0.21507189 0.69589818 1.1708845e-38
0.53923893 -0.21202545 0.6972385 1.1524457e-38
0.53982341 -0.20630905 0.69587195 1.0786899e-38
0.54056722 -0.19972256 0.69711912 8.1136134e-39
0.54092485 -0.19238703 0.69647563 3.781544e-39
0.541466 -0.18508692 0.69627225 2.8599577e-39
0.5428974 -0.17880321 0.69641978 2.8599577e-39
0.544783 -0.17213072 0.69693911 2.8599577e-39
0.54659623 -0.16967806 0.69414848 2.8599577e-39
0.54793942 -0.16420898 0.6956771 2.8599577e-39
0.55078149 -0.1585428 0.69674706 2.8599577e-39
0.55373061 -0.15686134 0.6987856 2.8599577e-39
0.52798587 -0.078863516 0.69846165 1.1524452e-38
0.53733325 -0.082749978 0.69865477 1.7701561e-38
0.54060107 -0.083088115 0.69814897 1.9729498e-38
0.52134907 -0.073529713 0.69678134 1.0325911e-38
0.53153819 -0.072310835 0.69886273 1.4566908e-38
0.51496297 -0.066089571 0.69712496 9.7727368e-39
0.51840419 -0.069661945 0.69878852 8.9429761e-39
0.55777907 -0.066485114 0.69990623 1.9821696e-38
0.50860476 -0.059075832 0.69673306 9.4039542e-39
0.5119369 -0.061606608 0.69881916 1.1247867e-38
0.50214773 -0.051781338 0.69627893 1.1708845e-38
0.5059039 -0.054437492 0.69609684 1.2261659e-38
0.48880976 -0.046288524 0.6989854 8.7556982e-39
0.49639559 -0.044026177 0.69504243 1.1709204e-38
0.49847788 -0.045574732 0.69776458 1.161737e-38
0.56414312 -0.046558961 0.69439512 4.8894064e-39
0.49678046 -0.041446976 0.69347924 1.0880165e-38
0.50045943 -0.038473677 0.69713742 1.0694326e-38
0.50313139 -0.0335517 0.69666749 1.2354214e-38
0.50547266 -0.030320976 0.69768751 1.2354213e-38
0.50930768 -0.0253959 0.69740772 1.2999582e-38
0.513358 -0.021933872 0.69762319 1.2907387e-38
0.51618636 -0.01902625 0.69605744 1.2077266e-38
0.51965374 -0.016222844 0.69709563 1.253824e-38
0.52333373 -0.012642533 0.69631934 1.1985429e-38
0.52756709 -0.0093418481 0.6974079 1.2815193e-38
0.53079289 -0.005885853 0.69598722 9.957512e-39
0.53513396 -0.0025784583 0.69726706 3.0443517e-39
0.53818727 0.0011280464 0.6950326 2.8599577e-39
0.54219192 0.0037012438 0.6967113 2.8599577e-39
0.54631758 0.0057108663 0.69950676 2.8599577e-39
0.5451262 0.0072217267 0.69479173 2.8599577e-39
0.54948497 0.0100539 0.69698018 2.8599577e-39
0.55442709 0.013015565 0.69915062 3.5979067e-39
0.54691905 0.019171178 0.69357353 4.9812293e-39
0.55721623 0.016511973 0.69723618 5.9016666e-39
0.56098771 0.019248962 0.69837904 1.0510303e-38
0.56440115 0.022791319 0.69661558 1.0602496e-38
0.56912047 0.026538931 0.69711536 1.0325909e-38
0.57226306 0.029837307 0.69616473 9.864931e-39
0.57633346 0.032897525 0.69688582 9.5883455e-39
0.57979423 0.035921097 0.69617021 9.7727368e-39
0.58419466 0.039003622 0.69666219 9.4961499e-39
0.54150498 0.042499825 0.69699961 1.4013736e-38
0.58749861 0.042152774 0.69462544 9.957128e-39
0.59069937 0.043793216 0.69648272 9.4039542e-39
0.46050802 0.19503054 0.69658363 7.1023229e-39
0.46402061 0.19428718 0.69710171 8.7600282e-39
0.45223731 0.20085739 0.69697011 6.0896185e-39
0.45692801 0.19727112 0.69697303 5.9963383e-39
0.47006828 0.19671413 0.69944358 8.4812749e-39
0.44671932 0.20824234 0.69624048 6.0899801e-39
0.44913229 0.20486118 0.69663608 6.0899801e-39
0.44061464 0.21670502 0.69513869 6.1821757e-39
0.44312549 0.21337876 0.69675899 6.0899787e-39
0.43819803 0.22050473 0.69637859 6.0899801e-39
0.43248338 0.22851774 0.69687402 6.0896199e-39
0.43502393 0.22507796 0.69659913 6.0899787e-39
0.42994803 0.23422006 0.69680047 5.9974215e-39
0.43001744 0.24134624 0.69646066 6.2732839e-39
0.43282244 0.2471555 0.69741535 5.7175752e-39
0.4356139 0.25040343 0.69588464 5.7164892e-39
0.43843228 0.25233489 0.69865 5.7161262e-39
0.44213301 0.25445092 0.69915593 5.4384548e-39
0.5258252 -0.29718104 0.70381576 2.8599577e-39
0.52757478 -0.2904624 0.703547 3.3205715e-39
0.52941334 -0.28357467 0.70373428 1.1156037e-38
0.53110504 -0.27682909 0.70352829 1.1708846e-38
0.53205472 -0.27306312 0.70553923 1.1708846e-38
0.53182101 -0.2712937 0.70150483 1.1801041e-38
0.53253406 -0.26854026 0.70367259 1.1708846e-38
0.53351164 -0.26259696 0.70357603 1.1157115e-38
0.53443336 -0.25541857 0.70367301 1.1708846e-38
0.53534418 -0.24856848 0.70341831 1.1708846e-38
0.53618884 -0.24107495 0.70309454 1.1708846e-38
0.53701758 -0.23476726 0.70386827 1.1708846e-38
0.53774941 -0.22751752 0.70308626 1.1801041e-38
0.54639804 -0.22407523 0.70584512 4.7046494e-39
0.53856784 -0.22114837 0.7034421 1.1708845e-38
0.53916013 -0.21875906 0.706213 1.1432262e-38
0.53950959 -0.21376546 0.70346588 5.6250783e-39
0.54046673 -0.20670082 0.70370483 3.8740984e-39
0.53614777 -0.19767824 0.70189291 2.8599577e-39
0.54138303 -0.19924094 0.70317608 2.8599577e-39
0.54212046 -0.19236061 0.70371509 2.8599577e-39
0.54298496 -0.18538865 0.70352423 2.8599577e-39
0.54422069 -0.17829366 0.70315284 2.8599577e-39
0.54528016 -0.17213665 0.70286328 2.8599577e-39
0.54655308 -0.17118746 0.70570827 2.8599577e-39
0.56845868 -0.1689235 0.70579422 3.0443545e-39
0.5457266 -0.16718604 0.70109129 2.8599577e-39
0.54751283 -0.16408527 0.70418084 2.8599577e-39
0.55111897 -0.15944086 0.70332474 2.8599577e-39
0.55593872 -0.15661007 0.70413518 2.8599577e-39
0.53551173 -0.13761154 0.70424211 3.1340152e-39
0.52899188 -0.078296877 0.7024762 1.6410462e-38
0.5349341 -0.079542004 0.70359057 1.8254735e-38
0.54041171 -0.077815562 0.70583916 1.9361082e-38
0.52337259 -0.072723992 0.70155358 1.3552397e-38
0.52866668 -0.073538721 0.7042439 1.5857287e-38
0.53461814 -0.074747749 0.70612031 1.5580334e-38
0.5399543 -0.076194383 0.70642602 1.9361082e-38
0.54874736 -0.071818367 0.7026177 1.7055101e-38
0.51678103 -0.064232461 0.70098537 1.1893236e-38
0.52146369 -0.066536538 0.70341146 1.1893236e-38
0.52821809 -0.066692986 0.70627308 1.7700836e-38
0.53527838 -0.065841906 0.70670348 1.9176688e-38
0.54286557 -0.066453829 0.70640242 1.8254005e-38
0.54945207 -0.066290326 0.70481592 1.8345846e-38
0.55590868 -0.065242149 0.70225394 1.6225342e-38
0.5606066 -0.063461356 0.70133668 1.8438763e-38
0.50959605 -0.057215143 0.7020275 1.0325911e-38
0.51430911 -0.059217185 0.70393783 1.1708845e-38
0.52103436 -0.059647091 0.70610207 1.4290323e-38
0.528552 -0.059272744 0.70642048 1.6779245e-38
0.53558028 -0.059882902 0.70620924 1.9453275e-38
0.54180771 -0.05911234 0.70651954 1.8991935e-38
0.54971272 -0.060246173 0.70674944 1.9545111e-38
0.55650526 -0.060564235 0.70521188 1.806962e-38
0.56255502 -0.059177559 0.70386696 1.4013772e-38
0.50272691 -0.051051207 0.7015084 1.3460562e-38
0.50740999 -0.05272622 0.70410585 1.2998861e-38
0.5148083 -0.052871652 0.70633215 1.4935692e-38
0.52117074 -0.052717656 0.70628518 1.5027888e-38
0.52863789 -0.052449092 0.70630759 1.5212279e-38
0.5356158 -0.05237475 0.70603055 1.6503016e-38
0.54228556 -0.052594326 0.70590961 1.9084131e-38
0.54917371 -0.052180879 0.70644218 1.8992297e-38
0.554869 -0.050761599 0.70683831 1.8807541e-38
0.5637601 -0.052389223 0.7063247 1.7885979e-38
0.5696243 -0.051575612 0.7050525 1.088098e-38
0.57427061 -0.051731564 0.70187259 4.7972066e-39
0.50149727 -0.045612611 0.70294762 1.3368364e-38
0.50598449 -0.046584234 0.70592988 1.1890703e-38
0.51573795 -0.045920819 0.70630294 1.6134235e-38
0.52160817 -0.045228478 0.70570314 1.5027888e-38
0.52903384 -0.045644075 0.7058357 1.4843496e-38
0.5354315 -0.045565683 0.70590305 1.5120083e-38
0.5425806 -0.04547267 0.70575082 1.6134234e-38
0.54996085 -0.045342684 0.70602453 1.9084132e-38
0.55646783 -0.045694422 0.70648724 1.9453276e-38
0.56319612 -0.045286611 0.70677185 1.9176698e-38
0.5703299 -0.045498632 0.70643067 8.2080567e-39
0.57670718 -0.044761993 0.70509464 4.9816062e-39
0.58311927 -0.044331811 0.70110548 4.7972066e-39
0.50287813 -0.039822955 0.70254749 9.1266415e-39
0.50688308 -0.037557155 0.70533544 1.4843495e-38
0.51445788 -0.038079347 0.70611882 1.889974e-38
0.52187324 -0.038455449 0.70514506 1.5302674e-38
0.52860343 -0.038279634 0.70529068 1.5120083e-38
0.53501266 -0.03839431 0.70540327 1.5027888e-38
0.54236573 -0.038608715 0.70561224 1.5027888e-38
0.55003506 -0.038384702 0.70593119 1.6134234e-38
0.55665451 -0.038712624 0.70625502 1.9084132e-38
0.56343329 -0.038270645 0.70648032 9.4980584e-39
0.57045686 -0.038629811 0.70649952 4.889405e-39
0.57731164 -0.038293548 0.70636696 4.8894064e-39
0.58336478 -0.038053274 0.70573938 4.8894064e-39
0.58956277 -0.038271442 0.7008611 4.889405e-39
0.50792485 -0.031577863 0.70253098 1.2999581e-38
0.51436746 -0.031342305 0.70450431 1.8162173e-38
0.52180898 -0.031615343 0.70466912 1.8254372e-38
0.52818352 -0.031316485 0.70513612 1.5581061e-38
0.53500074 -0.031513311 0.70541847 1.5027888e-38
0.54265159 -0.031429026 0.70571584 1.5120083e-38
0.55001241 -0.031415083 0.70595968 1.4843859e-38
0.55668789 -0.031710777 0.70621371 9.7742656e-39
0.56359583 -0.031242225 0.70628095 4.8894064e-39
0.57066917 -0.031563979 0.70624214 4.8894064e-39
0.57797867 -0.03166116 0.70624471 4.8894064e-39
0.5849815 -0.031413268 0.70627898 4.8894064e-39
0.59108007 -0.030312836 0.70554209 7.5623258e-39
0.51041043 -0.026808441 0.70091164 1.3921537e-38
0.51490229 -0.024644615 0.70221108 1.4013734e-38
0.52114213 -0.023996115 0.70354831 1.8530956e-38
0.52804226 -0.02437984 0.70461476 1.8070338e-38
0.53489304 -0.024623044 0.70555776 1.5673257e-38
0.54199719 -0.024552751 0.70600432 1.5027888e-38
0.54970121 -0.024421114 0.706352 9.958647e-39
0.55656219 -0.024694389 0.70637012 4.9812419e-39
0.56369323 -0.024360968 0.70635509 4.8894064e-39
0.57057512 -0.024466882 0.70635623 4.8894064e-39
0.57753646 -0.024572775 0.7063635 4.8894064e-39
0.58485049 -0.02422764 0.70643395 4.8894064e-39
0.59104967 -0.02446478 0.70649618 5.7187957e-39
0.59780729 -0.024172474 0.70506877 1.4474752e-38
0.60379303 -0.022654597 0.70276457 1.9729503e-38
0.51747274 -0.019587442 0.70004892 1.4198124e-38
0.52214658 -0.017898971 0.70172226 1.3829342e-38
0.52857077 -0.017455369 0.70355457 1.770156e-38
0.53542739 -0.017552296 0.70508242 1.8254735e-38
0.54226482 -0.017218018 0.7059356 1.0696201e-38
0.54961127 -0.017450839 0.70646524 5.0734333e-39
0.55641258 -0.017679028 0.70655632 4.8894064e-39
0.56331021 -0.017364703 0.7064153 4.8894064e-39
0.57051843 -0.017374625 0.70642489 4.8894064e-39
0.57763469 -0.017610971 0.70643979 4.889405e-39
0.58476728 -0.017845547 0.70653218 4.889405e-39
0.59110039 -0.017481271 0.70661163 4.8894064e-39
0.59754318 -0.017472263 0.70629346 1.1433783e-38
0.60474342 -0.01661557 0.70487165 1.9268884e-38
0.61143059 -0.015992556 0.70265067 2.0098286e-38
0.52475774 -0.013760157 0.70025897 1.3644953e-38
0.52931708 -0.012125256 0.70185858 1.3183983e-38
0.53527164 -0.01058236 0.70349067 1.124901e-38
0.54245263 -0.010182342 0.70533216 4.5202525e-39
0.54964858 -0.010491352 0.70641792 4.797208e-39
0.55647683 -0.010680833 0.70647639 4.8890477e-39
0.56362104 -0.010649908 0.70646691 4.8894064e-39
0.57052857 -0.010287651 0.70641267 4.8894064e-39
0.57776749 -0.010488467 0.70628107 4.8894064e-39
0.58493209 -0.010682462 0.70633721 4.889405e-39
0.59095502 -0.010351272 0.70641857 1.0512198e-38
0.59765571 -0.010228937 0.70616317 2.0098284e-38
0.60480404 -0.010440937 0.70529264 2.0190111e-38
0.61217707 -0.010249113 0.70446849 1.991353e-38
0.61897504 -0.01033105 0.70274919 2.0098646e-38
0.53667086 -0.0047380105 0.70155615 3.6901037e-39
0.542373 -0.003431062 0.70332533 4.1514574e-39
0.54944944 -0.0033334733 0.70586562 4.4280541e-39
0.55632716 -0.0036708394 0.70666242 4.8890477e-39
0.56322807 -0.0036596151 0.70653886 4.9812433e-39
0.57066005 -0.0032060605 0.70625329 4.9812433e-39
0.57687771 -0.0033411731 0.70611805 4.9812419e-39
0.58416867 -0.0034983999 0.70601726 8.4839009e-39
0.59147161 -0.0036541482 0.70600301 1.6595215e-38
0.59833729 -0.0035679522 0.70607615 1.9452912e-38
0.60560215 -0.0039619841 0.70560694 2.0005354e-38
0.61273468 -0.003808937 0.70562559 1.9360712e-38
0.61917734 -0.0031909463 0.70602643 1.9545111e-38
0.62429863 -0.0035559856 0.70491284 1.9453276e-38
0.5441581 0.0020986688 0.70165378 3.4131483e-39
0.54965216 0.003433988 0.70362049 3.8748635e-39
0.55592424 0.0034859802 0.70618057 4.3358557e-39
0.56340265 0.0032153318 0.70651865 4.9812433e-39
0.57074702 0.0030924508 0.70614791 4.981602e-39
0.57704741 0.0037806362 0.7059145 8.2995125e-39
0.58436108 0.0036668659 0.70578957 1.4843503e-38
0.591757 0.0035519185 0.70566928 1.5212279e-38
0.5980435 0.003456241 0.70571387 1.6226071e-38
0.60526669 0.0033493817 0.70599055 1.8991937e-38
0.61165214 0.0034085026 0.70663702 1.9176325e-38
0.61741984 0.001540144 0.70693874 1.9452548e-38
0.62368321 0.0047150478 0.70608532 1.9176329e-38
0.55118561 0.0082585746 0.70117873 3.874502e-39
0.55693495 0.0099540381 0.70290375 3.9666878e-39
0.56333655 0.010252325 0.70561492 6.5477997e-39
0.57059276 0.010458542 0.70575851 8.5761021e-39
0.57728273 0.010905421 0.70563203 1.5027889e-38
0.58451909 0.010837622 0.70560235 1.5212279e-38
0.59190297 0.010767891 0.70549864 1.5212279e-38
0.59809822 0.010711412 0.70565057 1.5027888e-38
0.60528231 0.010647233 0.70597267 1.5949843e-38
0.61204439 0.010812699 0.70663935 1.8623512e-38
0.62089145 0.011735247 0.70612574 1.853132e-38
0.55919564 0.014947973 0.70061642 8.7589814e-39
0.56368762 0.017027743 0.70246786 1.097128e-38
0.5703851 0.017409852 0.70499933 1.7332785e-38
0.57760006 0.017242771 0.70525151 1.6318626e-38
0.58453649 0.017055366 0.7053358 1.5120083e-38
0.59175885 0.017370719 0.70529068 1.5212279e-38
0.59841323 0.017159713 0.70528626 1.5027888e-38
0.60535806 0.016970759 0.70564079 1.4935692e-38
0.61242193 0.017030476 0.70554614 1.4751301e-38
0.61885113 0.016722906 0.70411384 1.5304475e-38
0.56611133 0.021211881 0.70071393 1.0879084e-38
0.57074744 0.023629399 0.70238006 1.1432258e-38
0.57726145 0.024381351 0.7039386 1.8070343e-38
0.58443981 0.024594737 0.70415843 1.5212279e-38
0.59127414 0.024406731 0.70500988 1.4843496e-38
0.59881908 0.024422619 0.70481712 1.5212279e-38
0.6050998 0.024203179 0.70477861 1.5304475e-38
0.61135727 0.023751995 0.70308399 1.5120083e-38
0.61695439 0.021178413 0.70132369 1.5027888e-38
0.57366753 0.029141398 0.70013094 1.0325911e-38
0.57790363 0.031116601 0.70185441 1.2907388e-38
0.58448732 0.031586073 0.70317972 1.7978148e-38
0.59140331 0.031628538 0.70485729 1.5857648e-38
0.59886706 0.031469405 0.704539 1.5581061e-38
0.60417306 0.031252921 0.70355856 1.5949844e-38
0.60925305 0.030988477 0.70019966 1.4935692e-38
0.58505368 0.036763821 0.70194513 1.4843492e-38
0.59122324 0.038205463 0.70340407 1.7055829e-38
0.59755665 0.036930915 0.70382249 1.9084493e-38
0.62032521 0.039590988 0.70244873 1.4289957e-38
0.59128225 0.04211222 0.70130271 1.1616286e-38
0.58425379 0.052997764 0.70560837 1.0045361e-38
0.46117777 0.19518135 0.70015627 8.6692801e-39
0.46463022 0.19556823 0.70127344 8.3930575e-39
0.45315582 0.20132376 0.70385796 4.5107195e-39
0.45813632 0.19782427 0.70403355 4.7862204e-39
0.46543601 0.197841 0.7054081 5.9818699e-39
0.47116843 0.19925484 0.70488137 7.1836697e-39
0.44740036 0.20885718 0.70216209 4.6990876e-39
0.44993141 0.20572917 0.70390582 4.3274114e-39
0.4756304 0.20381851 0.70634675 7.6442849e-39
0.47837603 0.20596455 0.70484447 7.6464527e-39
0.44471145 0.21364948 0.70386851 4.1430202e-39
0.43904138 0.22128057 0.70300686 4.4206917e-39
0.44165996 0.21848176 0.70438075 4.1422971e-39
0.43247709 0.22925577 0.70308673 4.4196085e-39
0.43571702 0.22643855 0.70429707 4.0501015e-39
0.4314619 0.23460372 0.70394033 4.1412139e-39
0.43156365 0.24102977 0.70418251 3.9568213e-39
0.43246859 0.24559087 0.70314014 4.2348543e-39
0.43692786 0.24917683 0.70412695 4.0497385e-39
0.44100052 0.2513907 0.70606309 3.9564597e-39
0.4595688 0.24894053 0.70639956 6.2570106e-39
0.44470778 0.25428063 0.70275462 4.2348529e-39
0.44936648 0.25471371 0.70563245 4.3248807e-39
0.52646595 -0.29718375 0.71052116 2.7803387e-39
0.52829963 -0.29033113 0.71074164 2.7821352e-39
0.53002274 -0.28370589 0.71033764 5.1781173e-39
0.53145558 -0.27804801 0.71056634 6.1922594e-39
0.5322364 -0.27431878 0.71104199 4.5374268e-39
0.53312969 -0.26944256 0.7102946 6.2840949e-39
0.53435117 -0.26224852 0.7102502 6.3762892e-39
0.53534687 -0.25576261 0.71094865 5.5486935e-39
0.5488832 -0.25819054 0.71118313 4.0699859e-39
0.53615862 -0.24863683 0.71006888 6.9276609e-39
0.537054 -0.24179336 0.71055132 6.6521544e-39
0.53788424 -0.23448803 0.71030515 7.2035261e-39
0.5205121 -0.22569996 0.70807302 1.0785445e-38
0.53858125 -0.22812332 0.71006513 8.0311218e-39
0.5392381 -0.22548924 0.71285677 3.3421305e-39
0.53895998 -0.22354276 0.70893013 1.143334e-38
0.53959161 -0.2200398 0.71074671 6.558521e-39
0.5403465 -0.21299556 0.71006685 2.8678624e-39
0.54128462 -0.20656644 0.71103734 2.7785422e-39
0.54203695 -0.19948107 0.70990616 2.7735116e-39
0.54291922 -0.19272743 0.71090603 2.7763856e-39
0.54415309 -0.18577048 0.71036923 2.7738703e-39
0.54558873 -0.18031114 0.70907831 2.8624716e-39
0.54676592 -0.17750931 0.7103765 2.7709962e-39
0.54840976 -0.171211 0.71022904 2.7695585e-39
0.55003327 -0.16441309 0.71025312 2.7699186e-39
0.55194175 -0.16027494 0.71089178 2.771355e-39
0.55653286 -0.15740445 0.71032548 3.0447133e-39
0.56197661 -0.1559048 0.71162355 3.5053467e-39
0.53119504 -0.077713005 0.7097261 8.7290539e-39
0.57042712 -0.081622645 0.71245205 9.1914726e-39
0.52067572 -0.070570387 0.70898378 1.9084495e-38
0.53648746 -0.072016582 0.70719296 1.9452914e-38
0.54112291 -0.072380923 0.70739228 1.98217e-38
0.53767014 -0.06783168 0.70714486 1.9176322e-38
0.54236323 -0.066116244 0.7073921 1.9452916e-38
0.54505563 -0.061929803 0.70730197 1.8992298e-38
0.54917943 -0.05889919 0.7072922 1.9729503e-38
0.55555654 -0.057107955 0.70712972 1.9914253e-38
0.51035607 -0.050454929 0.7072084 1.3183611e-38
0.51215398 -0.050568935 0.7072463 1.6134235e-38
0.55009127 -0.055089612 0.70708829 1.9176687e-38
0.5570634 -0.052910376 0.70708889 1.9913892e-38
0.50872225 -0.045173328 0.70763153 1.659485e-38
0.51235592 -0.044881709 0.70746911 1.7056192e-38
0.55999559 -0.048990428 0.70702559 2.0006452e-38
0.50767744 -0.041343171 0.70714587 1.8162176e-38
0.51319468 -0.041658927 0.70707798 1.751717e-38
0.526559 -0.03182916 0.71115345 9.219563e-39
0.60755956 -0.0077780597 0.71241403 5.9031842e-39
0.61489189 0.0056705554 0.70732462 1.9268527e-38
0.61962968 0.0038038841 0.70740974 1.9268518e-38
0.61497706 0.0081179924 0.70722896 1.8992298e-38
0.61746323 0.010194785 0.70741433 1.8070343e-38
0.57445329 0.030846514 0.7138325 1.6041679e-38
0.46620217 0.17973465 0.70994604 6.6424308e-39
0.46361768 0.1918357 0.70981091 4.9774836e-39
0.45460677 0.2029403 0.7076562 5.1528323e-39
0.45840114 0.20106348 0.70859051 5.336862e-39
0.46538585 0.20145158 0.70870823 6.1648164e-39
0.47147328 0.2020102 0.70794427 6.3499307e-39
0.45248649 0.20724007 0.70878643 4.9688026e-39
0.45806322 0.20635316 0.71160352 5.7049215e-39
0.46530896 0.20647646 0.7123605 6.2570106e-39
0.47191668 0.20685899 0.71053845 6.5328759e-39
0.47706714 0.20821363 0.70758653 6.5332374e-39
0.44660512 0.21494357 0.70844913 4.6925786e-39
0.45126292 0.21327949 0.7111057 5.3365033e-39
0.45784283 0.21268214 0.71348029 6.0726222e-39
0.46551871 0.21253023 0.71374583 6.4410404e-39
0.47177252 0.21319808 0.71265697 6.6250701e-39
0.47640514 0.21394469 0.71020931 6.4406816e-39
0.4300836 0.22375493 0.7086153 4.5092734e-39
0.44000947 0.22286232 0.70763081 3.9564597e-39
0.44460103 0.22071065 0.70971316 5.0606381e-39
0.45071614 0.22034732 0.71295887 5.7045627e-39
0.45785975 0.22205651 0.70794213 4.6025508e-39
0.46624354 0.22143677 0.7134974 6.6247114e-39
0.47203222 0.22019601 0.7111997 6.6247114e-39
0.47708178 0.22015376 0.70839673 6.5328759e-39
0.43844914 0.22778547 0.70935285 4.9684438e-39
0.44437373 0.22732672 0.71217793 5.8885925e-39
0.44978467 0.2267696 0.71353662 5.8885925e-39
0.46510863 0.22774249 0.71248978 6.6247114e-39
0.47036552 0.22681834 0.70990711 6.5328759e-39
0.43380061 0.23424682 0.70737648 4.5085489e-39
0.43736359 0.23440418 0.71084338 4.9688026e-39
0.44407663 0.23368232 0.71353793 6.0726222e-39
0.44888419 0.23186138 0.71391779 6.2570106e-39
0.45955807 0.23587161 0.71330261 6.6250701e-39
0.46452194 0.23382486 0.7113117 6.7169056e-39
0.46908522 0.23258087 0.70846498 6.4410404e-39
0.43335563 0.24097316 0.70809132 4.4163547e-39
0.43703938 0.24116446 0.71107328 4.9688026e-39
0.44373265 0.24160834 0.71370149 6.0729809e-39
0.45198604 0.24328536 0.71354431 6.3488461e-39
0.45751536 0.24095322 0.71303469 6.5328759e-39
0.46274495 0.24161516 0.70956224 6.4410404e-39
0.4384574 0.24693602 0.70924729 4.6003844e-39
0.44439417 0.24868377 0.71097004 5.1528323e-39
0.45087662 0.24794592 0.71166122 6.1658982e-39
0.45616749 0.2472195 0.71029758 6.2570106e-39
0.44704103 0.25206101 0.70924145 5.2446678e-39
0.44941032 0.25255468 0.70935029 5.6127272e-39
0.527336 -0.29732859 0.71737909 2.7904e-39
0.5291518 -0.29028931 0.71746039 2.7904e-39
0.53090233 -0.2834084 0.7173956 2.7904e-39
0.53200239 -0.28006291 0.72025871 2.7904e-39
0.53181762 -0.27894303 0.71646047 2.7904e-39
0.5325489 -0.27572104 0.71754283 2.7904e-39
0.53369749 -0.26980829 0.71752226 2.7904e-39
0.53505462 -0.26253656 0.71735847 2.7904e-39
0.53600657 -0.2555342 0.71757305 2.7904e-39
0.53689837 -0.24826069 0.71743608 2.7904e-39
0.53775609 -0.2415026 0.717601 2.7904e-39
0.53854567 -0.23455431 0.71677345 2.7904e-39
0.53914481 -0.23257397 0.72085166 2.7904e-39
0.53950608 -0.2276818 0.71815354 2.7904e-39
0.54035604 -0.22034997 0.7174769 2.7904e-39
0.54116577 -0.21365868 0.71731067 2.7903986e-39
0.541987 -0.20652981 0.71727467 2.7904e-39
0.54278475 -0.19959663 0.71767205 2.7900399e-39
0.54354084 -0.19226572 0.71774417 2.7904e-39
0.54425728 -0.18535063 0.71753663 2.7900399e-39
0.54525274 -0.17936571 0.71842307 2.7900399e-39
0.54648781 -0.17716357 0.71526778 2.7878847e-39
0.54768425 -0.17173575 0.71784687 2.789321e-39
0.5506174 -0.16406336 0.71715373 2.7835729e-39
0.55254728 -0.16036034 0.71622294 2.8599577e-39
0.55558139 -0.15921994 0.71672404 3.0472328e-39
0.56406569 -0.15768017 0.71505809 3.5979053e-39
0.56842977 -0.15679406 0.71503794 3.5979053e-39
0.58379233 -0.021535937 0.7192778 1.0142673e-38
0.61459219 -0.0016168579 0.71753538 1.871499e-38
0.62336445 0.011588024 0.71589142 1.9545472e-38
0.58293271 0.014612565 0.71831781 5.2581847e-39
0.60413218 0.01600232 0.71957183 1.825437e-38
0.54268759 0.030577166 0.71486574 1.0410902e-38
0.58852321 0.052594706 0.71486974 1.0320147e-38
0.45963889 0.21535873 0.71430075 6.3488461e-39
0.46467733 0.2144476 0.71436608 6.4406816e-39
0.45360842 0.22147417 0.7141853 5.9807867e-39
0.45820284 0.22043522 0.71461445 6.3488461e-39
0.4638195 0.21939757 0.71427214 6.6250701e-39
0.45258486 0.22759856 0.71429044 6.1648164e-39
0.45810238 0.22733776 0.71439445 6.4410404e-39
0.4446426 0.23548855 0.71408159 6.2570106e-39
0.45130771 0.23468053 0.71420342 6.3488461e-39
0.45676181 0.23363738 0.71417069 6.5328759e-39
0.44716874 0.24130271 0.71405977 6.2570106e-39
0.45076171 0.24003732 0.7142899 6.3488461e-39
0.4647482 0.24433619 0.71635312 5.7049215e-39
0.52817184 -0.29790366 0.72451311 2.7904e-39
0.52990693 -0.29067802 0.7245295 2.7904e-39
0.53135139 -0.28476316 0.72429031 2.7904e-39
0.53230047 -0.28134313 0.72548336 2.7904e-39
0.53312796 -0.27628747 0.72420025 2.7904e-39
0.53446245 -0.26941398 0.72449636 2.7904e-39
0.53570676 -0.26260448 0.72460872 2.7904e-39
0.53664774 -0.25526676 0.72430801 2.7904e-39
0.53752118 -0.24883854 0.7247228 2.7904e-39
0.53835928 -0.24176018 0.7240656 2.7904e-39
0.53912109 -0.23885325 0.72687 2.7904e-39
0.53877974 -0.23643309 0.72191131 2.7904e-39
0.53952444 -0.23431025 0.72534245 2.7904e-39
0.54032892 -0.22739203 0.72448599 2.7904e-39
0.54121494 -0.22089316 0.724657 2.7904e-39
0.54219633 -0.21336441 0.72453308 2.7904e-39
0.55016822 -0.21120209 0.72417766 2.7875246e-39
0.54304677 -0.20637435 0.72418344 2.7904e-39
0.54386675 -0.19948326 0.72455257 2.7904e-39
0.54456407 -0.19232163 0.72467262 2.7904e-39
0.54511333 -0.18576919 0.72441518 2.7904e-39
0.5456844 -0.17949179 0.72445565 2.7904e-39
0.54614365 -0.176337 0.72472501 2.7904e-39
0.54730189 -0.17165554 0.72494096 2.7904e-39
0.55020958 -0.1650641 0.72411925 2.976236e-39
0.55468601 -0.16220361 0.7258358 3.0702309e-39
0.58398181 -0.16337846 0.72202271 2.8822411e-39
0.55737478 -0.15870243 0.72383189 2.965453e-39
0.56143439 -0.1565029 0.72582871 3.0536998e-39
0.5475862 -0.028961904 0.72183591 1.5765453e-38
0.58399451 -0.028996125 0.72443593 1.0604028e-38
0.54240632 -0.022019705 0.72707003 1.8807546e-38
0.51645553 -0.018846339 0.72295648 1.3460558e-38
0.59592813 0.04480299 0.72447056 1.5304475e-38
0.45080787 0.21781434 0.72476047 5.0613625e-39
0.52915674 -0.29753497 0.73146123 2.7900399e-39
0.53067499 -0.29080367 0.73136073 2.7900399e-39
0.53168947 -0.28622001 0.73117161 2.7896798e-39
0.53251976 -0.28264141 0.73194742 2.7900399e-39
0.5336746 -0.276658 0.73149937 2.7896798e-39
0.53500772 -0.26933026 0.73122776 2.7900399e-39
0.53607941 -0.26229408 0.73184204 2.7896798e-39
0.53716624 -0.25527751 0.73122966 2.7896812e-39
0.53824329 -0.24840793 0.73152143 2.7900399e-39
0.5388509 -0.24371837 0.73017597 2.7900399e-39
0.53944731 -0.24062367 0.73180526 2.7900399e-39
0.54029882 -0.23440431 0.73134547 2.7900399e-39
0.541201 -0.22740446 0.73141366 2.7900399e-39
0.54209948 -0.22047392 0.73149091 2.7900399e-39
0.54296112 -0.21345085 0.73140448 2.7900399e-39
0.54384178 -0.20647635 0.7317158 2.7900399e-39
0.54465151 -0.19912645 0.73101842 2.7900399e-39
0.55192322 -0.19706193 0.72981584 3.8737383e-39
0.55781341 -0.20204918 0.73065412 7.27768e-39
0.54535872 -0.19264002 0.73163015 2.7900399e-39
0.55514836 -0.1954193 0.73127496 1.115531e-38
0.54583186 -0.1864565 0.73075783 2.7903986e-39
0.54623246 -0.18436907 0.73273116 2.7903986e-39
0.54666084 -0.17811725 0.73141921 2.7903986e-39
0.54867911 -0.17130958 0.73140955 2.8836775e-39
0.56675512 -0.17380694 0.7300173 3.5057082e-39
0.55188316 -0.16483565 0.73256218 2.8833173e-39
0.55375254 -0.1636349 0.7314862 3.0702309e-39
0.55601037 -0.15889713 0.73283052 3.2388141e-39
0.56361413 -0.15671331 0.73114043 3.32131e-39
0.56959265 -0.15650849 0.73275971 3.32131e-39
0.56765074 -0.15369336 0.72834408 2.8599591e-39
0.5297451 -0.2976191 0.7387358 2.7720738e-39
0.5311588 -0.29042172 0.73837614 2.772434e-39
0.53202307 -0.28809112 0.74156672 2.8599577e-39
0.53195274 -0.28629225 0.73697829 2.8660659e-39
0.53277838 -0.28306001 0.73887932 2.7709962e-39
0.53409153 -0.27667913 0.73871702 2.7709962e-39
0.53509814 -0.26979312 0.73793399 2.7727927e-39
0.53595555 -0.26255068 0.73904961 2.8631905e-39
0.53700626 -0.25552389 0.73838139 2.7727927e-39
0.53821975 -0.24831074 0.73860711 2.7727927e-39
0.55195087 -0.24690273 0.73571271 2.8599577e-39
0.51697099 -0.24315681 0.74170148 4.797208e-39
0.53889996 -0.24442117 0.73894489 2.861394e-39
0.53950387 -0.24109699 0.73870414 2.7731514e-39
0.54065663 -0.23458144 0.73796505 2.7742304e-39
0.5545398 -0.23281936 0.73793149 3.1365544e-39
0.54169405 -0.2278244 0.73874557 2.7727927e-39
0.54257876 -0.22035038 0.73825347 2.775308e-39
0.55465543 -0.2235757 0.73886883 8.3905562e-39
0.54346466 -0.21373391 0.7386722 2.7745892e-39
0.58065194 -0.21328358 0.74113172 2.7904e-39
0.5444262 -0.20629729 0.73878706 2.7745892e-39
0.5451507 -0.19961269 0.73853147 2.7760269e-39
0.54575068 -0.19348469 0.73791516 2.778901e-39
0.54617572 -0.19079618 0.73905659 2.7742304e-39
0.54672348 -0.18545866 0.73865306 2.7771045e-39
0.52736366 -0.17763527 0.74196452 3.4142287e-39
0.54797238 -0.17879091 0.7384488 2.8696617e-39
0.55076379 -0.172355 0.73817748 2.9661733e-39
0.55393612 -0.16997854 0.74064982 2.9557518e-39
0.55194181 -0.16704099 0.73602164 3.0687904e-39
0.55564994 -0.1647094 0.73890823 3.0601668e-39
0.55749696 -0.15973531 0.73759508 3.0662779e-39
0.56087714 -0.15808959 0.74060875 2.9640139e-39
0.57064706 -0.15736875 0.73505485 3.32131e-39
0.45622632 0.23508084 0.73773366 6.6247114e-39
0.53091455 -0.29743636 0.74585354 2.7684809e-39
0.53205401 -0.29513448 0.74847496 2.8599577e-39
0.53152025 -0.29227573 0.74311692 2.8599577e-39
0.532507 -0.29025805 0.74596655 2.8599577e-39
0.53353482 -0.28358445 0.74556804 2.8599577e-39
0.53457898 -0.27647167 0.74538827 2.8599577e-39
0.55721521 -0.27345961 0.74873102 4.4280541e-39
0.56668162 -0.27315149 0.74330533 2.7857281e-39
0.53539234 -0.26934794 0.74536777 2.8599577e-39
0.53623319 -0.26252925 0.74568421 2.8599577e-39
0.51007652 -0.25530776 0.74571949 2.789321e-39
0.53727096 -0.25557482 0.7455771 2.8599577e-39
0.53837848 -0.2487746 0.74508166 2.8599577e-39
0.53925449 -0.24551056 0.7477935 2.8599577e-39
0.53898996 -0.24466492 0.74465102 2.8599577e-39
0.53972936 -0.24149095 0.7459113 2.8599577e-39
0.57104498 -0.24476238 0.74797833 3.3213114e-39
0.54096526 -0.23437074 0.74554485 2.8599577e-39
0.5422948 -0.22706728 0.74582565 2.8599577e-39
0.54324949 -0.22053307 0.74528921 2.8599577e-39
0.5697974 -0.21713082 0.74288076 1.2074431e-38
0.59159899 -0.21760404 0.74852341 6.4567013e-39
0.54442716 -0.21340543 0.74600363 2.8599577e-39
0.54528636 -0.20674036 0.74554229 2.8599577e-39
0.59431118 -0.20429306 0.74785209 6.6410855e-39
0.54584622 -0.20084973 0.74391091 2.8599577e-39
0.54652435 -0.19893517 0.74660963 2.8599577e-39
0.54705733 -0.19259907 0.74535173 2.8599577e-39
0.54833335 -0.18541107 0.74586689 2.8599577e-39
0.54961169 -0.17821626 0.7455467 2.8599577e-39
0.55129915 -0.17227775 0.74711251 2.8599577e-39
0.55454618 -0.17043386 0.74225104 2.8599577e-39
0.55253351 -0.16766997 0.74808729 2.9521561e-39
0.55749702 -0.16486385 0.74374372 2.8599577e-39
