# .PCD v0.7 - Point Cloud Data file format
VERSION 0.7
FIELDS x y z rgb
SIZE 4 4 4 4
TYPE F F F F
COUNT 1 1 1 1
WIDTH 1015
HEIGHT 1
VIEWPOINT 0 0 0 1 0 0 0
POINTS 1015
DATA ascii
0.40930855 -0.28345424 0.609999 1.0879084e-38
0.41651535 -0.28335598 0.609999 1.0879084e-38
0.42372784 -0.28362837 0.60999912 1.0879084e-38
0.43026632 -0.28349897 0.60999912 1.0879084e-38
0.43755987 -0.28345793 0.6099993 1.0879084e-38
0.44493136 -0.2834748 0.60999936 1.0879084e-38
0.45167497 -0.28353179 0.60999942 1.0879084e-38
0.45859793 -0.28359362 0.60999942 1.0879084e-38
0.46526638 -0.28344887 0.60999954 1.0879084e-38
0.47215486 -0.28350314 0.60999954 1.0879084e-38
0.47903267 -0.28355533 0.6099996 1.0879084e-38
0.48633638 -0.28342187 0.6099996 1.0879084e-38
0.49352959 -0.28367803 0.60999966 1.0879084e-38
0.50086367 -0.2833384 0.60999966 1.0879084e-38
0.50823426 -0.2835972 0.60999972 1.0879084e-38
0.51470131 -0.2834191 0.60999972 1.097128e-38
0.52159077 -0.28385729 0.61038512 1.0233715e-38
0.52604699 -0.28299639 0.60999984 1.097128e-38
0.71904314 -0.28360611 0.61000115 1.097128e-38
0.7244941 -0.28383002 0.61000115 1.097128e-38
0.73119998 -0.28361866 0.61000115 1.097128e-38
0.73904192 -0.28337154 0.61000115 1.097128e-38
0.74539977 -0.28349251 0.61000133 1.097128e-38
0.7518177 -0.28361428 0.61000139 1.097128e-38
0.75988734 -0.28336358 0.6100015 1.097128e-38
0.76712227 -0.2836042 0.6100015 1.097128e-38
0.77378887 -0.28358611 0.6100015 1.097128e-38
0.78051132 -0.28356853 0.61000156 1.097128e-38
0.78770077 -0.28349075 0.61000156 1.097128e-38
0.79495639 -0.28341278 0.61000162 1.097128e-38
0.80159223 -0.28373641 0.61000168 1.097128e-38
0.80885983 -0.28337461 0.61000174 1.097128e-38
0.81507617 -0.28347638 0.61000186 1.097128e-38
0.82189178 -0.28380466 0.61000186 1.097128e-38
0.82935745 -0.28343835 0.61000192 1.097128e-38
0.83574384 -0.28354174 0.61000198 1.097128e-38
0.84304899 -0.28352383 0.61000204 1.097128e-38
0.85041887 -0.28350374 0.61000204 1.097128e-38
0.85698235 -0.28360888 0.6100021 1.097128e-38
0.86480206 -0.2832337 0.6100021 1.097128e-38
0.88047165 -0.28167301 0.60993189 1.097128e-38
0.33309048 -0.27654651 0.60999864 1.0879084e-38
0.33981088 -0.27643505 0.60999864 1.0879084e-38
0.34672618 -0.27673939 0.60999864 1.0879084e-38
0.35373399 -0.27648583 0.6099987 1.0879084e-38
0.36083591 -0.27651116 0.6099987 1.0879084e-38
0.36803421 -0.27653682 0.6099987 1.0879084e-38
0.37455639 -0.2763947 0.60999876 1.0879084e-38
0.38123959 -0.27646959 0.60999876 1.0879084e-38
0.38871726 -0.2764962 0.60999876 1.0879084e-38
0.39549509 -0.27635032 0.60999888 1.0879084e-38
0.40244174 -0.27657342 0.60999882 1.0879084e-38
0.40955544 -0.27643231 0.609999 1.0879084e-38
0.41658393 -0.2763474 0.60999894 1.0879084e-38
0.42364341 -0.27650476 0.60999912 1.0879084e-38
0.43013859 -0.2765207 0.60999912 1.0879084e-38
0.43741694 -0.27649251 0.6099993 1.0879084e-38
0.44493082 -0.27660167 0.60999936 1.0879084e-38
0.45144331 -0.27641946 0.60999936 1.0879084e-38
0.45836383 -0.27643773 0.60999948 1.0879084e-38
0.46526697 -0.27645379 0.60999948 1.0879084e-38
0.47220671 -0.27666393 0.60999954 1.0879084e-38
0.47942522 -0.27648959 0.6099996 1.0879084e-38
0.48638853 -0.27649987 0.6099996 1.0879084e-38
0.4935289 -0.2765137 0.60999966 1.0879084e-38
0.50075597 -0.2765274 0.60999966 1.0879084e-38
0.50797397 -0.27653903 0.60999972 1.0879084e-38
0.51455742 -0.27640453 0.60999972 1.0879084e-38
0.5218541 -0.27652717 0.61100018 1.0141519e-38
0.52604705 -0.2764549 0.60999978 1.097128e-38
0.71917897 -0.27660733 0.61000115 1.097128e-38
0.7244941 -0.27623174 0.61000115 1.097128e-38
0.73096412 -0.27662879 0.61000115 1.097128e-38
0.73880351 -0.27634349 0.61000115 1.097128e-38
0.74539977 -0.27674663 0.61000127 1.097128e-38
0.75230426 -0.27649835 0.61000144 1.097128e-38
0.76040423 -0.27653164 0.61000144 1.097128e-38
0.7667321 -0.27681747 0.6100015 1.097128e-38
0.77353787 -0.27638996 0.61000156 1.097128e-38
0.78090876 -0.27659807 0.61000156 1.097128e-38
0.78770137 -0.27654764 0.61000156 1.097128e-38
0.79455137 -0.2764976 0.61000162 1.097128e-38
0.80213833 -0.27670979 0.61000168 1.097128e-38
0.80927265 -0.27627078 0.61000186 1.097128e-38
0.81466013 -0.27646831 0.61000174 1.097128e-38
0.82245278 -0.27668324 0.61000192 1.097128e-38
0.82956952 -0.27678004 0.61000186 1.097128e-38
0.83531648 -0.27643821 0.61000198 1.097128e-38
0.84332347 -0.27665594 0.61000204 1.097128e-38
0.85063678 -0.27675393 0.61000204 1.097128e-38
0.85654312 -0.27640727 0.61000204 1.097128e-38
0.86449087 -0.27628899 0.6100021 1.097128e-38
0.33288181 -0.26938325 0.60999864 1.0879084e-38
0.33981088 -0.2694979 0.60999864 1.0879084e-38
0.34667265 -0.26961258 0.6099987 1.0879084e-38
0.35373399 -0.269456 0.6099987 1.0879084e-38
0.36080506 -0.26937619 0.61004251 1.0879084e-38
0.36791316 -0.26955739 0.60999876 1.0879084e-38
0.3745949 -0.26940662 0.60999876 1.0879084e-38
0.38123974 -0.26940092 0.60999876 1.0879084e-38
0.38878047 -0.26967373 0.60999876 1.0879084e-38
0.39541462 -0.26940638 0.60999888 1.0879084e-38
0.40237725 -0.26950902 0.60999888 1.0879084e-38
0.40947339 -0.26939833 0.609999 1.0879084e-38
0.41644615 -0.26951098 0.60999894 1.0879084e-38
0.42368528 -0.26957297 0.60999906 1.0879084e-38
0.4300102 -0.26954487 0.60999912 1.0879084e-38
0.43741742 -0.26949978 0.6099993 1.0879084e-38
0.44497505 -0.2695384 0.60999936 1.0879084e-38
0.45170462 -0.26937777 0.60999411 1.0879084e-38
0.45845857 -0.2694864 0.60999942 1.0879084e-38
0.46526644 -0.26945877 0.60999954 1.0879084e-38
0.472206 -0.26962742 0.60999954 1.0879084e-38
0.47903273 -0.26940033 0.6099996 1.0879084e-38
0.48613751 -0.26957053 0.6099996 1.0879084e-38
0.49352959 -0.26934931 0.60999966 1.0879084e-38
0.50081038 -0.26952136 0.60999966 1.0879084e-38
0.5083437 -0.26949838 0.60999966 1.0879084e-38
0.51484311 -0.26929781 0.61009735 1.0786889e-38
0.52129734 -0.26959816 0.60999972 1.0879084e-38
0.72012872 -0.27020538 0.61000109 1.097128e-38
0.72467804 -0.26907769 0.61000115 1.097128e-38
0.73072743 -0.26964253 0.61000115 1.097128e-38
0.73856425 -0.26931909 0.61000115 1.097128e-38
0.7455892 -0.26948771 0.61000127 1.097128e-38
0.75206143 -0.26940677 0.6100015 1.097128e-38
0.75988734 -0.26973674 0.6100015 1.097128e-38
0.76692718 -0.26945254 0.6100015 1.097128e-38
0.77406442 -0.26949176 0.61000156 1.097128e-38
0.78051132 -0.26974955 0.61000156 1.097128e-38
0.78721946 -0.26910603 0.61024433 1.097128e-38
0.79495639 -0.26945916 0.61000162 1.097128e-38
0.80159223 -0.26972094 0.61000168 1.097128e-38
0.80885983 -0.26929143 0.61000174 1.097128e-38
0.81507617 -0.2693353 0.61000174 1.097128e-38
0.8218919 -0.26960006 0.6100018 1.097128e-38
0.82956946 -0.26964197 0.61000192 1.097128e-38
0.83553022 -0.26975301 0.61000198 1.097128e-38
0.84274709 -0.26947585 0.61000198 1.097128e-38
0.85063684 -0.26951769 0.61000204 1.097128e-38
0.85676283 -0.26962984 0.61000204 1.097128e-38
0.86418092 -0.2693482 0.6100021 1.097128e-38
0.332986 -0.2623516 0.60999864 1.0879084e-38
0.33981082 -0.26256081 0.60999864 1.0879084e-38
0.34672627 -0.26249412 0.6099987 1.0879084e-38
0.35373405 -0.26242614 0.6099987 1.0879084e-38
0.36083615 -0.26249847 0.6099987 1.0879084e-38
0.36803412 -0.26257256 0.60999876 1.0879084e-38
0.37447894 -0.26241523 0.60999876 1.0879084e-38
0.38117778 -0.26247248 0.60999876 1.0879084e-38
0.38871765 -0.26255143 0.60999876 1.0879084e-38
0.39565539 -0.26246908 0.60999888 1.0879084e-38
0.40244114 -0.26260117 0.60999888 1.0879084e-38
0.40939108 -0.26236594 0.609999 1.0879084e-38
0.41651532 -0.26250234 0.60999894 1.0879084e-38
0.42372784 -0.2626403 0.60999912 1.0879084e-38
0.43031859 -0.26257837 0.60999912 1.0879084e-38
0.43748814 -0.26252478 0.6099993 1.0879084e-38
0.4445616 -0.26249084 0.61019588 1.0879084e-38
0.45144331 -0.26259506 0.60999936 1.0879084e-38
0.45836383 -0.26253039 0.60999948 1.0879084e-38
0.46526703 -0.26246372 0.60999954 1.0879084e-38
0.47220665 -0.26259077 0.60999954 1.0879084e-38
0.47938499 -0.26252595 0.60999954 1.0879084e-38
0.48653471 -0.26245764 0.6099996 1.0879084e-38
0.49358228 -0.26238483 0.60999966 1.0879084e-38
0.50078535 -0.26255924 0.6102168 1.0879084e-38
0.50817961 -0.26244345 0.60999972 1.0879084e-38
0.51470131 -0.26235566 0.60999972 1.0879084e-38
0.52135253 -0.26247197 0.60999972 1.0879084e-38
0.72064012 -0.26216519 0.61000109 1.097128e-38
0.7243101 -0.26249066 0.61000115 1.097128e-38
0.73120004 -0.26262522 0.61000115 1.097128e-38
0.73904192 -0.26226327 0.61000121 1.097128e-38
0.74521035 -0.26280412 0.61000127 1.097128e-38
0.7518177 -0.26231891 0.61000144 1.097128e-38
0.76037925 -0.26257661 0.6100015 1.097128e-38
0.76692724 -0.26260635 0.6100015 1.097128e-38
0.77353787 -0.26263595 0.61000156 1.097128e-38
0.78071004 -0.26231456 0.61000156 1.097128e-38
0.78798217 -0.26231915 0.61000156 1.097128e-38
0.79455143 -0.26254779 0.61000162 1.097128e-38
0.80213839 -0.26268923 0.61000168 1.097128e-38
0.80906624 -0.26272032 0.6100018 1.097128e-38
0.81458604 -0.2622681 0.6100685 1.097128e-38
0.82245278 -0.26247337 0.61000192 1.097128e-38
0.82956952 -0.26250386 0.61000192 1.097128e-38
0.83553022 -0.26258719 0.61000192 1.097128e-38
0.84335136 -0.2625933 0.61000204 1.097128e-38
0.85063678 -0.26228142 0.61000204 1.097128e-38
0.85698241 -0.26284948 0.61000204 1.097128e-38
0.86480206 -0.26237011 0.6100021 1.097128e-38
0.33298603 -0.2554599 0.60999864 1.0879084e-38
0.33981073 -0.25548488 0.60999864 1.0879084e-38
0.34672624 -0.2555109 0.6099987 1.0879084e-38
0.35373399 -0.25539637 0.6099987 1.0879084e-38
0.36083594 -0.2555629 0.6099987 1.0879084e-38
0.36809465 -0.25559363 0.60999876 1.0879084e-38
0.37459487 -0.25542837 0.60999876 1.0879084e-38
0.38123959 -0.2554082 0.60999876 1.0879084e-38
0.3887178 -0.25543401 0.60999876 1.0879084e-38
0.39557534 -0.25552407 0.60999888 1.0879084e-38
0.40250596 -0.25569203 0.60999882 1.0879084e-38
0.4094319 -0.25552136 0.609999 1.0879084e-38
0.41644928 -0.25534877 0.60999894 1.0879084e-38
0.42364341 -0.25551823 0.60999912 1.0879084e-38
0.43009576 -0.25560093 0.60999912 1.0879084e-38
0.43756029 -0.25554836 0.60999918 1.0879084e-38
0.4451161 -0.25560278 0.60999936 1.0879084e-38
0.4517633 -0.25549492 0.60999942 1.0879084e-38
0.45840824 -0.2553843 0.60999942 1.0879084e-38
0.46526644 -0.25546876 0.60999954 1.0879084e-38
0.47220606 -0.2555542 0.60999954 1.0879084e-38
0.47922865 -0.25564066 0.6099996 1.0879084e-38
0.48628342 -0.25552958 0.6099996 1.0879084e-38
0.49332821 -0.25541654 0.60999966 1.0879084e-38
0.50060654 -0.25550377 0.60999966 1.0879084e-38
0.50801653 -0.25539127 0.60999972 1.0879084e-38
0.5145573 -0.25534362 0.60999972 1.0879084e-38
0.52124107 -0.25554684 0.60999972 1.0879084e-38
0.52752268 -0.25557902 0.61085951 8.9433362e-39
0.72064012 -0.25648189 0.61000109 1.097128e-38
0.7244941 -0.25533652 0.61000109 1.097128e-38
0.73096412 -0.25563881 0.61000115 1.097128e-38
0.73854065 -0.25557244 0.61000121 1.097128e-38
0.74539977 -0.25554526 0.61000127 1.097128e-38
0.75232887 -0.2555173 0.61000139 1.097128e-38
0.76013374 -0.25544807 0.6100015 1.097128e-38
0.76692718 -0.25576013 0.6100015 1.097128e-38
0.77403909 -0.25540659 0.6100015 1.097128e-38
0.78071004 -0.25540414 0.6100015 1.097128e-38
0.78744549 -0.25540131 0.61000162 1.097128e-38
0.79495639 -0.25550559 0.61000162 1.097128e-38
0.80159223 -0.25570551 0.61000168 1.097128e-38
0.80906624 -0.25567773 0.6100018 1.097128e-38
0.81486815 -0.25573376 0.6100018 1.097128e-38
0.82189178 -0.25539544 0.61000186 1.097128e-38
0.82956946 -0.25536576 0.61000192 1.097128e-38
0.83553022 -0.25542131 0.61000192 1.097128e-38
0.84277421 -0.25541842 0.61000204 1.097128e-38
0.85085475 -0.25552666 0.61000204 1.097128e-38
0.85654312 -0.25565365 0.61000204 1.097128e-38
0.86449087 -0.25542954 0.6100021 1.097128e-38
0.33303812 -0.2484332 0.60999864 1.0879084e-38
0.33981088 -0.248409 0.60999864 1.0879084e-38
0.34672618 -0.24852774 0.60999864 1.0879084e-38
0.35373399 -0.2483665 0.6099987 1.0879084e-38
0.360836 -0.24848583 0.6099987 1.0879084e-38
0.36803421 -0.2486071 0.6099987 1.0879084e-38
0.37471062 -0.24843936 0.60999876 1.0879084e-38
0.38123924 -0.24848385 0.60999876 1.0879084e-38
0.38865495 -0.2484585 0.60999876 1.0879084e-38
0.39549509 -0.2485806 0.60999882 1.0879084e-38
0.40244165 -0.24862802 0.60999888 1.0879084e-38
0.40947345 -0.24867594 0.609999 1.0879084e-38
0.41658679 -0.24850468 0.60999894 1.0879084e-38
0.4235588 -0.2483978 0.60999912 1.0879084e-38
0.43001014 -0.24843968 0.60999912 1.0879084e-38
0.43742013 -0.24840848 0.60999924 1.0879084e-38
0.44488746 -0.24853563 0.60999936 1.0879084e-38
0.45163071 -0.24838744 0.60999942 1.0879084e-38
0.45840883 -0.24843031 0.60999942 1.0879084e-38
0.46526703 -0.24847367 0.60999948 1.0879084e-38
0.47220671 -0.24851754 0.60999954 1.0879084e-38
0.47922924 -0.24856193 0.6099996 1.0879084e-38
0.48633638 -0.24860685 0.6099996 1.0879084e-38
0.49368903 -0.24845476 0.60999966 1.0879084e-38
0.50097179 -0.24849956 0.60999966 1.0879084e-38
0.5083437 -0.24854492 0.60999966 1.0879084e-38
0.51470143 -0.24858421 0.60999972 1.0879084e-38
0.52113003 -0.24862365 0.60999972 1.0879084e-38
0.52783412 -0.24834517 0.6107614 9.8652925e-39
0.72467804 -0.24817975 0.61000115 1.097128e-38
0.73072743 -0.24865602 0.61000121 1.097128e-38
0.73880321 -0.24852479 0.61000121 1.097128e-38
0.7455892 -0.24828359 0.61000127 1.097128e-38
0.7518177 -0.24876732 0.61000139 1.097128e-38
0.75988734 -0.24832322 0.6100015 1.097128e-38
0.76712227 -0.24839051 0.6100015 1.097128e-38
0.77351308 -0.24855575 0.6100015 1.097128e-38
0.78071004 -0.24849373 0.61000156 1.097128e-38
0.78798217 -0.24843056 0.61000156 1.097128e-38
0.79455143 -0.24859791 0.61000162 1.097128e-38
0.80213839 -0.24866873 0.61000162 1.097128e-38
0.80906624 -0.24863522 0.61000174 1.097128e-38
0.81486815 -0.24866417 0.6100018 1.097128e-38
0.8224799 -0.24860039 0.61000192 1.097128e-38
0.82956952 -0.24822767 0.61000198 1.097128e-38
0.83574396 -0.24873129 0.61000192 1.097128e-38
0.84304911 -0.24854806 0.61000198 1.097128e-38
0.85041893 -0.24836121 0.61000204 1.097128e-38
0.85676283 -0.24887325 0.61000204 1.097128e-38
0.86418092 -0.24849288 0.6100021 1.097128e-38
0.33298603 -0.24140042 0.60999864 1.0879084e-38
0.33981088 -0.24147184 0.60999864 1.0879084e-38
0.3467263 -0.24154457 0.60999864 1.0879084e-38
0.35373393 -0.24133667 0.6099987 1.0879084e-38
0.36083594 -0.24140869 0.6099987 1.0879084e-38
0.36803421 -0.24148214 0.60999876 1.0879084e-38
0.3745949 -0.24144872 0.60999876 1.0879084e-38
0.38123959 -0.24155943 0.60999876 1.0879084e-38
0.388592 -0.2414843 0.60999876 1.0879084e-38
0.39541459 -0.24163863 0.60999888 1.0879084e-38
0.40237728 -0.24156527 0.60999888 1.0879084e-38
0.40939111 -0.24164505 0.609999 1.0879084e-38
0.41651535 -0.24164863 0.60999894 1.0879084e-38
0.42386374 -0.24146526 0.609999 1.0879084e-38
0.43031868 -0.2414674 0.60999912 1.0879084e-38
0.43756291 -0.24143516 0.60999924 1.0879084e-38
0.44493082 -0.24147198 0.60999936 1.0879084e-38
0.45163018 -0.24147418 0.60999936 1.0879084e-38
0.45840836 -0.24147643 0.60999942 1.0879084e-38
0.46526644 -0.24147868 0.60999954 1.0879084e-38
0.47220606 -0.24148096 0.60999954 1.0879084e-38
0.47922871 -0.24148332 0.6099996 1.0879084e-38
0.48633581 -0.24148566 0.60999966 1.0879084e-38
0.49352899 -0.24148801 0.6099996 1.0879084e-38
0.50080967 -0.24149042 0.60999966 1.0879084e-38
0.50817955 -0.24149285 0.60999972 1.0879084e-38
0.51483524 -0.24155305 0.60999972 1.0879084e-38
0.52150744 -0.24149752 0.60999972 1.0879084e-38
0.52866483 -0.24145621 0.61090773 8.8511406e-39
0.7243101 -0.24159813 0.61000115 1.097128e-38
0.73120004 -0.24163179 0.61000121 1.097128e-38
0.73906612 -0.24147335 0.61000121 1.097128e-38
0.74521035 -0.24160551 0.61000127 1.097128e-38
0.75230426 -0.2416397 0.61000139 1.097128e-38
0.76040423 -0.24147896 0.61000144 1.097128e-38
0.7667321 -0.24161313 0.6100015 1.097128e-38
0.77403909 -0.24164791 0.6100015 1.097128e-38
0.78071004 -0.24158329 0.61000156 1.097128e-38
0.7874456 -0.24151769 0.61000162 1.097128e-38
0.79495651 -0.24155197 0.61000162 1.097128e-38
0.80159223 -0.24169004 0.61000168 1.097128e-38
0.80906624 -0.24159266 0.6100018 1.097128e-38
0.81486815 -0.2415946 0.6100018 1.097128e-38
0.82191825 -0.24152751 0.61000192 1.097128e-38
0.82978153 -0.2415626 0.61000192 1.097128e-38
0.83531654 -0.24163742 0.61000192 1.097128e-38
0.84332353 -0.24167393 0.61000198 1.097128e-38
0.85063678 -0.24160641 0.61000204 1.097128e-38
0.85676277 -0.24160846 0.6100021 1.097128e-38
0.86480206 -0.24150653 0.6100021 1.097128e-38
0.33298603 -0.23450872 0.60999864 1.0879084e-38
0.33981088 -0.23453467 0.60999864 1.0879084e-38
0.34672627 -0.23456137 0.6099987 1.0879084e-38
0.35373393 -0.23430686 0.6099987 1.0879084e-38
0.36077651 -0.23447077 0.6099987 1.0879084e-38
0.36803439 -0.23449956 0.60999876 1.0879084e-38
0.37463358 -0.23445888 0.60999876 1.0879084e-38
0.38130155 -0.23449318 0.60999876 1.0879084e-38
0.38884291 -0.23452352 0.60999876 1.0879084e-38
0.39553511 -0.23451371 0.60999882 1.0879084e-38
0.40231273 -0.2345037 0.60999888 1.0879084e-38
0.40930855 -0.23461577 0.609999 1.0879084e-38
0.41644922 -0.23449631 0.60999894 1.0879084e-38
0.42364347 -0.2345317 0.609999 1.0879084e-38
0.43011102 -0.23436496 0.61025506 1.0879084e-38
0.43748879 -0.23445107 0.6099993 1.0879084e-38
0.44493136 -0.2345987 0.60999936 1.0879084e-38
0.4516308 -0.2345608 0.60999936 1.0879084e-38
0.45848802 -0.23441619 0.6102829 1.0879084e-38
0.46526697 -0.23448358 0.60999948 1.0879084e-38
0.47220665 -0.23444432 0.60999954 1.0879084e-38
0.47922924 -0.23440453 0.6099996 1.0879084e-38
0.48617858 -0.23456345 0.6099996 1.0879084e-38
0.49336979 -0.23452397 0.6099996 1.0879084e-38
0.50064862 -0.23448397 0.60999966 1.0879084e-38
0.50801647 -0.23444349 0.60999966 1.0879084e-38
0.51455742 -0.23428266 0.60999972 1.0879084e-38
0.52124107 -0.23437025 0.60999972 1.0879084e-38
0.52914774 -0.23428769 0.6106624 9.5883469e-39
0.7244941 -0.23444131 0.61000115 1.097128e-38
0.73096424 -0.23464884 0.61000121 1.097128e-38
0.73856425 -0.23478971 0.61000115 1.097128e-38
0.74539971 -0.23434387 0.61000127 1.097128e-38
0.75206143 -0.23455399 0.61000139 1.097128e-38
0.75988734 -0.23469643 0.6100015 1.097128e-38
0.76692712 -0.23424353 0.6100015 1.097128e-38
0.7735132 -0.23480201 0.6100015 1.097128e-38
0.78071004 -0.23467287 0.61000156 1.097128e-38
0.78798217 -0.23454192 0.61000156 1.097128e-38
0.79455137 -0.23464809 0.61000162 1.097128e-38
0.80213839 -0.23464818 0.61000168 1.097128e-38
0.80906624 -0.2345501 0.6100018 1.097128e-38
0.81486815 -0.234525 0.6100018 1.097128e-38
0.8224799 -0.2343903 0.61000174 1.097128e-38
0.82935745 -0.23449822 0.61000186 1.097128e-38
0.8357439 -0.23439758 0.61000192 1.097128e-38
0.84274709 -0.23450688 0.61000204 1.097128e-38
0.85063684 -0.23437017 0.61000204 1.097128e-38
0.85676283 -0.23434365 0.61000204 1.097128e-38
0.86449087 -0.23457006 0.6100021 1.097128e-38
0.33298591 -0.22747916 0.60999864 1.0879084e-38
0.33981088 -0.22759753 0.60999864 1.0879084e-38
0.34672624 -0.22757818 0.60999864 1.0879084e-38
0.35361624 -0.22741365 0.6099987 1.0879084e-38
0.360836 -0.22753796 0.6099987 1.0879084e-38
0.36803421 -0.22751704 0.6099987 1.0879084e-38
0.3745949 -0.22746952 0.60999876 1.0879084e-38
0.38123974 -0.22756596 0.60999876 1.0879084e-38
0.3887805 -0.22754765 0.60999876 1.0879084e-38
0.39565536 -0.22738644 0.60999888 1.0879084e-38
0.40257001 -0.22745372 0.60999882 1.0879084e-38
0.40955544 -0.22758301 0.609999 1.0879084e-38
0.41651469 -0.22749841 0.60999894 1.0879084e-38
0.42355874 -0.22741289 0.609999 1.0879084e-38
0.43013808 -0.22752097 0.60999912 1.0879084e-38
0.43741351 -0.2274684 0.60999924 1.0879084e-38
0.44479951 -0.2275366 0.60999936 1.0879084e-38
0.45149732 -0.22745745 0.60999942 1.0879084e-38
0.45840824 -0.22756852 0.60999942 1.0879084e-38
0.46526638 -0.22748865 0.60999954 1.0879084e-38
0.47220606 -0.22740777 0.60999954 1.0879084e-38
0.47928074 -0.22752181 0.6099996 1.0879084e-38
0.48653474 -0.22763675 0.6099996 1.0879084e-38
0.49373034 -0.22755533 0.60999966 1.0879084e-38
0.50101352 -0.22747289 0.60999966 1.0879084e-38
0.50834364 -0.22759154 0.60999966 1.0879084e-38
0.51470143 -0.22752076 0.60999972 1.0879084e-38
0.52113003 -0.227449 0.60999972 1.0879084e-38
0.52893203 -0.22737572 0.61030126 1.0510302e-38
0.72467804 -0.22728184 0.61000115 1.097128e-38
0.73072743 -0.22766952 0.61000115 1.097128e-38
0.73880321 -0.22742002 0.61000121 1.097128e-38
0.74539977 -0.227598 0.61000127 1.097128e-38
0.7518177 -0.22747193 0.61000139 1.097128e-38
0.76037925 -0.22752453 0.6100015 1.097128e-38
0.76692724 -0.22739731 0.6100015 1.097128e-38
0.77378851 -0.2275794 0.61000156 1.097128e-38
0.78090876 -0.22723126 0.61000156 1.097128e-38
0.78772521 -0.227614 0.61031944 1.097128e-38
0.79495651 -0.22759832 0.61000162 1.097128e-38
0.80159223 -0.22767456 0.61000168 1.097128e-38
0.80906624 -0.22750756 0.6100018 1.097128e-38
0.81486815 -0.22745542 0.6100018 1.097128e-38
0.82191831 -0.22732264 0.61000192 1.097128e-38
0.82956952 -0.22783314 0.61000186 1.097128e-38
0.83531654 -0.22730769 0.61000192 1.097128e-38
0.84335136 -0.22761068 0.61000204 1.097128e-38
0.85063678 -0.22713391 0.61000204 1.097128e-38
0.85698241 -0.2275583 0.61000204 1.097128e-38
0.86418092 -0.22763756 0.6100021 1.097128e-38
0.332986 -0.22044963 0.60999864 1.0879084e-38
0.33975795 -0.2205202 0.60999864 1.0879084e-38
0.34672618 -0.22059497 0.60999864 1.0879084e-38
0.35373393 -0.22052912 0.6099987 1.0879084e-38
0.36083594 -0.22046083 0.6099987 1.0879084e-38
0.36803424 -0.22039202 0.60999876 1.0879084e-38
0.37455639 -0.22048087 0.60999876 1.0879084e-38
0.38123959 -0.22049728 0.60999876 1.0879084e-38
0.3887178 -0.22057301 0.60999876 1.0879084e-38
0.39557537 -0.22044398 0.60999882 1.0879084e-38
0.40250587 -0.22039051 0.60999888 1.0879084e-38
0.40947339 -0.22055262 0.609999 1.0879084e-38
0.41658124 -0.2204992 0.60999894 1.0879084e-38
0.42386377 -0.2204746 0.60999912 1.0879084e-38
0.43018121 -0.22054698 0.60999912 1.0879084e-38
0.4375571 -0.2204925 0.60999936 1.0879084e-38
0.4451161 -0.22046742 0.60999936 1.0879084e-38
0.45181763 -0.22034699 0.60999942 1.0879084e-38
0.45840889 -0.22061452 0.60999942 1.0879084e-38
0.46526697 -0.22049351 0.60999954 1.0879084e-38
0.47205251 -0.22056971 0.60999954 1.0879084e-38
0.47903278 -0.22064418 0.6099996 1.0879084e-38
0.48613751 -0.22052118 0.6099996 1.0879084e-38
0.49332824 -0.22039674 0.6099996 1.0879084e-38
0.50075603 -0.22046794 0.60999966 1.0879084e-38
0.50817966 -0.22054228 0.60999972 1.0879084e-38
0.51484567 -0.22075646 0.60999972 1.0879084e-38
0.52146423 -0.22052085 0.60999972 1.0879084e-38
0.52909023 -0.22039264 0.60999972 1.0879084e-38
0.72064012 -0.21764597 0.61000109 1.097128e-38
0.7243101 -0.22070561 0.61000109 1.097128e-38
0.73096389 -0.2203387 0.61000115 1.097128e-38
0.73906612 -0.22036472 0.61000121 1.097128e-38
0.74534392 -0.22079387 0.61056435 1.097128e-38
0.75230426 -0.22033721 0.61000139 1.097128e-38
0.75986308 -0.22074695 0.61000144 1.097128e-38
0.76692718 -0.22055112 0.6100015 1.097128e-38
0.77406442 -0.2203528 0.6100015 1.097128e-38
0.78051132 -0.22039601 0.61000156 1.097128e-38
0.78795624 -0.22032456 0.61000156 1.097128e-38
0.79455143 -0.22069824 0.61000162 1.097128e-38
0.80213833 -0.22062765 0.61000162 1.097128e-38
0.80934554 -0.22003444 0.61077219 1.097128e-38
0.81486815 -0.22038585 0.6100018 1.097128e-38
0.82218581 -0.22054009 0.6100018 1.097128e-38
0.82956946 -0.22069505 0.61000192 1.097128e-38
0.83553022 -0.22061568 0.61000192 1.097128e-38
0.84277421 -0.22044888 0.61000204 1.097128e-38
0.85085475 -0.22037421 0.61000204 1.097128e-38
0.85654312 -0.22037244 0.6100021 1.097128e-38
0.86480206 -0.22064292 0.6100021 1.097128e-38
0.33298603 -0.21355785 0.60999864 1.0879084e-38
0.33981094 -0.21344613 0.60999864 1.0879084e-38
0.3466211 -0.2135773 0.61000484 1.0694693e-38
0.35373399 -0.21349926 0.6099987 1.0879084e-38
0.360836 -0.21338373 0.6099987 1.0879084e-38
0.3679738 -0.21340828 0.60999876 1.0879084e-38
0.3745949 -0.21349077 0.60999876 1.0879084e-38
0.38117775 -0.21342736 0.60999876 1.0879084e-38
0.38865507 -0.21359956 0.60999876 1.0879084e-38
0.39549512 -0.21350306 0.60999882 1.0879084e-38
0.40237468 -0.21347432 0.60999894 1.0879084e-38
0.40939108 -0.21352386 0.609999 1.0879084e-38
0.41644657 -0.21349484 0.60999894 1.0879084e-38
0.42364341 -0.21354514 0.60999906 1.0879084e-38
0.42995808 -0.21357952 0.60999912 1.0879084e-38
0.43741745 -0.21335688 0.60999936 1.0879084e-38
0.44474614 -0.21360199 0.60999936 1.0879084e-38
0.45144331 -0.21344148 0.60999942 1.0879084e-38
0.45827389 -0.21347106 0.60999942 1.0879084e-38
0.46526638 -0.21349856 0.60999954 1.0879084e-38
0.47234404 -0.21352717 0.60999954 1.0879084e-38
0.47942522 -0.21355753 0.6099996 1.0879084e-38
0.48653471 -0.21339187 0.6099996 1.0879084e-38
0.49368903 -0.21342435 0.60999966 1.0879084e-38
0.50064862 -0.21366374 0.60999966 1.0879084e-38
0.50801659 -0.21349575 0.60999972 1.0879084e-38
0.51456749 -0.21349075 0.60999972 1.0879084e-38
0.52135253 -0.21359837 0.60999972 1.0879084e-38
0.52897704 -0.21342705 0.60999978 1.0879084e-38
0.53542924 -0.21358089 0.61035198 7.467846e-39
0.72012872 -0.21263638 0.61000109 1.097128e-38
0.7244941 -0.21354611 0.61000115 1.097128e-38
0.73122388 -0.21332049 0.61000115 1.097128e-38
0.73856425 -0.21368846 0.61000115 1.097128e-38
0.74539971 -0.2131425 0.61000127 1.097128e-38
0.75179374 -0.21359959 0.61000139 1.097128e-38
0.7601335 -0.21358855 0.61000144 1.097128e-38
0.76712227 -0.21317682 0.6100015 1.097128e-38
0.77353787 -0.21351451 0.6100015 1.097128e-38
0.78090876 -0.21340859 0.61000156 1.097128e-38
0.78742045 -0.21342185 0.61000156 1.097128e-38
0.79495639 -0.21364471 0.61000162 1.097128e-38
0.80159223 -0.21365914 0.61000168 1.097128e-38
0.80906624 -0.21342245 0.6100018 1.097128e-38
0.81486815 -0.21331625 0.6100018 1.097128e-38
0.8224529 -0.21375388 0.61000192 1.097128e-38
0.82956952 -0.21355696 0.61000186 1.097128e-38
0.83553022 -0.21344984 0.61000198 1.097128e-38
0.84304911 -0.21357226 0.61000198 1.097128e-38
0.85041893 -0.21321861 0.61000204 1.097128e-38
0.85676283 -0.21358706 0.6100021 1.097128e-38
0.86420876 -0.2133844 0.6100021 1.097128e-38
0.33293384 -0.20652761 0.60999864 1.0879084e-38
0.33981088 -0.20650896 0.60999864 1.0879084e-38
0.34672627 -0.20662862 0.60999864 1.0879084e-38
0.35373399 -0.20646946 0.6099987 1.0879084e-38
0.36071661 -0.20644654 0.6099987 1.0879084e-38
0.36803421 -0.20642735 0.60999876 1.0879084e-38
0.37447894 -0.20650542 0.60999876 1.0879084e-38
0.38111565 -0.20650296 0.60999876 1.0879084e-38
0.38871765 -0.20648375 0.60999876 1.0879084e-38
0.39541465 -0.20656371 0.60999882 1.0879084e-38
0.40231267 -0.20656157 0.60999888 1.0879084e-38
0.40930852 -0.20649667 0.609999 1.0879084e-38
0.416383 -0.20649405 0.60999894 1.0879084e-38
0.42355874 -0.20642793 0.609999 1.0879084e-38
0.43026629 -0.20659837 0.60999912 1.0879084e-38
0.43762955 -0.20628841 0.61004663 1.0879084e-38
0.44506243 -0.20652963 0.60999936 1.0879084e-38
0.45181766 -0.20651807 0.60999936 1.0879084e-38
0.45859799 -0.20631494 0.60999948 1.0879084e-38
0.46526697 -0.20650344 0.60999954 1.0879084e-38
0.47205251 -0.20649834 0.60999954 1.0879084e-38
0.47903273 -0.20648916 0.6099996 1.0879084e-38
0.48628336 -0.20647416 0.6099996 1.0879084e-38
0.49352896 -0.20646229 0.60999966 1.0879084e-38
0.50101346 -0.20664638 0.60999966 1.0879084e-38
0.5083437 -0.20663814 0.60999966 1.0879084e-38
0.51470143 -0.20645732 0.60999972 1.0879084e-38
0.52108651 -0.20647897 0.60999972 1.0879084e-38
0.52886426 -0.20646335 0.60999978 1.0879084e-38
0.53578937 -0.20679452 0.6100412 9.2195644e-39
0.71836925 -0.20612557 0.61000109 1.097128e-38
0.72467804 -0.20638393 0.61000115 1.097128e-38
0.73072743 -0.20668301 0.61000115 1.097128e-38
0.73880321 -0.20631523 0.61000121 1.097128e-38
0.74539977 -0.20639662 0.61000133 1.097128e-38
0.75206113 -0.20647936 0.61000139 1.097128e-38
0.76040435 -0.20642623 0.61000144 1.097128e-38
0.7667321 -0.20640877 0.6100015 1.097128e-38
0.77403903 -0.20626844 0.61000156 1.097128e-38
0.78051132 -0.20657702 0.61000156 1.097128e-38
0.7879563 -0.20643617 0.61000156 1.097128e-38
0.79455137 -0.2067484 0.61000162 1.097128e-38
0.80213839 -0.20660709 0.61000162 1.097128e-38
0.80906624 -0.20637991 0.61000174 1.097128e-38
0.81456065 -0.20666032 0.60995835 1.097128e-38
0.82189196 -0.20669384 0.61000192 1.097128e-38
0.82956946 -0.20641887 0.61000192 1.097128e-38
0.83553022 -0.20628397 0.61000186 1.097128e-38
0.84332353 -0.20669192 0.61000204 1.097128e-38
0.85063678 -0.20645891 0.61000204 1.097128e-38
0.85698241 -0.20679879 0.61000204 1.097128e-38
0.86449128 -0.20641109 0.6100021 1.097128e-38
0.332986 -0.19949913 0.60999864 1.0879084e-38
0.33981082 -0.19957182 0.60999864 1.0879084e-38
0.3467263 -0.19964544 0.6099987 1.0879084e-38
0.35373402 -0.19943962 0.6099987 1.0879084e-38
0.36083603 -0.19951335 0.6099987 1.0879084e-38
0.36791325 -0.19944398 0.60999876 1.0879084e-38
0.37459493 -0.19951257 0.60999876 1.0879084e-38
0.38136315 -0.19958188 0.60999876 1.0879084e-38
0.388592 -0.1993655 0.60999876 1.0879084e-38
0.39553514 -0.19943491 0.60999882 1.0879084e-38
0.40256998 -0.19950503 0.60999888 1.0879084e-38
0.40955549 -0.19945765 0.609999 1.0879084e-38
0.41672158 -0.19949713 0.60999894 1.0879084e-38
0.42386377 -0.19948399 0.60999912 1.0879084e-38
0.43018115 -0.19943862 0.60999912 1.0879084e-38
0.43756029 -0.19939841 0.60999918 1.0879084e-38
0.44493139 -0.199469 0.60999936 1.0879084e-38
0.45144331 -0.19961704 0.60999936 1.0879084e-38
0.45821917 -0.19937347 0.60999942 1.0879084e-38
0.46526638 -0.1995085 0.60999954 1.0879084e-38
0.47240031 -0.19964568 0.60999954 1.0879084e-38
0.47942522 -0.19939782 0.6099996 1.0879084e-38
0.48633638 -0.19954927 0.6099996 1.0879084e-38
0.49336979 -0.19950292 0.60999966 1.0879084e-38
0.50060654 -0.19945127 0.60999966 1.0879084e-38
0.50817961 -0.19959171 0.60999972 1.0879084e-38
0.51484573 -0.19969051 0.60999972 1.0879084e-38
0.52129698 -0.19955018 0.60999972 1.0879084e-38
0.52875185 -0.19950145 0.60999978 1.0879084e-38
0.53552967 -0.19941935 0.60999978 1.0879084e-38
0.70460063 -0.19746228 0.61000103 1.097128e-38
0.71083099 -0.1985247 0.61000115 1.097128e-38
0.71808624 -0.19925106 0.61000109 1.097128e-38
0.7243101 -0.1998131 0.61000115 1.097128e-38
0.73096389 -0.19934876 0.61000115 1.097128e-38
0.73906612 -0.19925609 0.61000121 1.097128e-38
0.74539977 -0.19965072 0.61000133 1.097128e-38
0.75232887 -0.19935529 0.61000139 1.097128e-38
0.75988734 -0.19965611 0.61000144 1.097128e-38
0.76712227 -0.19948258 0.6100015 1.097128e-38
0.77351308 -0.19943514 0.6100015 1.097128e-38
0.78090876 -0.19958588 0.61000156 1.097128e-38
0.78742045 -0.19953844 0.61000156 1.097128e-38
0.79475397 -0.19923452 0.61000162 1.097128e-38
0.80159235 -0.1996437 0.61000168 1.097128e-38
0.80906624 -0.19933735 0.6100018 1.097128e-38
0.81486815 -0.19917707 0.6100018 1.097128e-38
0.82245278 -0.19954401 0.61000192 1.097128e-38
0.82956952 -0.19928078 0.61000198 1.097128e-38
0.83574396 -0.19958711 0.61000192 1.097128e-38
0.84274709 -0.19953793 0.61000204 1.097128e-38
0.85085475 -0.1996963 0.61000204 1.097128e-38
0.85654312 -0.1996188 0.61000204 1.097128e-38
0.86480206 -0.19977933 0.6100021 1.097128e-38
0.33288181 -0.19246951 0.60999864 1.0879084e-38
0.33970532 -0.19249585 0.60999864 1.0879084e-38
0.34661931 -0.19252251 0.60999864 1.0879084e-38
0.35373393 -0.19240978 0.6099987 1.0879084e-38
0.360836 -0.19243626 0.6099987 1.0879084e-38
0.36803418 -0.1924631 0.60999876 1.0879084e-38
0.37459496 -0.19234386 0.60999876 1.0879084e-38
0.3812395 -0.19251154 0.60999876 1.0879084e-38
0.38884297 -0.19239499 0.60999876 1.0879084e-38
0.39565542 -0.19230382 0.60999888 1.0879084e-38
0.4025059 -0.19244348 0.60999888 1.0879084e-38
0.40947342 -0.19242935 0.609999 1.0879084e-38
0.41651544 -0.19249357 0.60999894 1.0879084e-38
0.42364347 -0.19255865 0.60999906 1.0879084e-38
0.42995805 -0.1924753 0.60999912 1.0879084e-38
0.4372741 -0.19241713 0.6099993 1.0879084e-38
0.44479957 -0.1924109 0.60999936 1.0879084e-38
0.45176336 -0.1924995 0.60999942 1.0879084e-38
0.45859799 -0.19240479 0.60999942 1.0879084e-38
0.46526697 -0.19251341 0.60999954 1.0879084e-38
0.47201246 -0.19262391 0.60999954 1.0879084e-38
0.47903278 -0.19233418 0.6099996 1.0879084e-38
0.48633575 -0.19242811 0.6099996 1.0879084e-38
0.49373022 -0.19252373 0.60999966 1.0879084e-38
0.50097173 -0.19243006 0.60999966 1.0879084e-38
0.50801647 -0.19254802 0.60999966 1.0879084e-38
0.51456755 -0.19242963 0.60999972 1.0879084e-38
0.5215075 -0.19261777 0.60999972 1.0879084e-38
0.52909023 -0.19252251 0.60999978 1.0879084e-38
0.53566819 -0.19226317 0.60999984 1.0879084e-38
0.55812824 -0.19544268 0.61092252 6.4548291e-39
0.68371487 -0.19039083 0.61000091 1.097128e-38
0.68932605 -0.19106576 0.61000097 1.097128e-38
0.6957047 -0.19229564 0.61000103 1.097128e-38
0.70270801 -0.19285895 0.61000103 1.097128e-38
0.71046996 -0.19242203 0.61000109 1.097128e-38
0.71834165 -0.19229214 0.61000109 1.097128e-38
0.7244941 -0.19265088 0.61000115 1.097128e-38
0.73122394 -0.19232671 0.61000121 1.097128e-38
0.73856425 -0.19258718 0.61000115 1.097128e-38
0.7455892 -0.19238175 0.61000127 1.097128e-38
0.7518177 -0.192625 0.61000139 1.097128e-38
0.7602585 -0.19224294 0.61007887 1.097128e-38
0.76673216 -0.19271819 0.6100015 1.097128e-38
0.77403909 -0.19250976 0.6100015 1.097128e-38
0.78051132 -0.19275804 0.61000156 1.097128e-38
0.78795624 -0.1925478 0.61000162 1.097128e-38
0.79475397 -0.19225864 0.61000162 1.097128e-38
0.80213839 -0.19258656 0.61000162 1.097128e-38
0.80906624 -0.19229479 0.6100018 1.097128e-38
0.81507617 -0.19256926 0.61000174 1.097128e-38
0.8218919 -0.19248922 0.61000192 1.097128e-38
0.82978153 -0.19260894 0.61000192 1.097128e-38
0.83531654 -0.19250689 0.61000192 1.097128e-38
0.84335136 -0.19262806 0.61000198 1.097128e-38
0.85041893 -0.1925465 0.61000204 1.097128e-38
0.85676283 -0.19283052 0.61000204 1.097128e-38
0.86420882 -0.19252871 0.6100021 1.097128e-38
0.33298606 -0.18544075 0.60999864 1.0879084e-38
0.33981091 -0.18542074 0.60999864 1.0879084e-38
0.34672627 -0.18540049 0.60999864 1.0879084e-38
0.35373402 -0.18537998 0.6099987 1.0879084e-38
0.36095503 -0.18550001 0.6099987 1.0879084e-38
0.36815476 -0.18547986 0.6099987 1.0879084e-38
0.37471062 -0.18534808 0.60999876 1.0879084e-38
0.38130155 -0.18544246 0.60999876 1.0879084e-38
0.38878047 -0.18542154 0.60999876 1.0879084e-38
0.39557534 -0.1853639 0.60999882 1.0879084e-38
0.40237468 -0.18553062 0.60999888 1.0879084e-38
0.4092584 -0.18559471 0.60999894 1.0879084e-38
0.41630852 -0.18549389 0.60999894 1.0879084e-38
0.4235588 -0.18544297 0.60999912 1.0879084e-38
0.43026632 -0.1854884 0.60999912 1.0879084e-38
0.43770283 -0.18543692 0.6099993 1.0879084e-38
0.44511616 -0.18533206 0.60999936 1.0879084e-38
0.4516308 -0.18539923 0.60999936 1.0879084e-38
0.45821917 -0.18546785 0.60999942 1.0879084e-38
0.46526644 -0.18551844 0.60999954 1.0879084e-38
0.47240031 -0.18557014 0.60999954 1.0879084e-38
0.47938505 -0.18543682 0.6099996 1.0879084e-38
0.48617852 -0.18551241 0.6099996 1.0879084e-38
0.4933283 -0.18537691 0.60999966 1.0879084e-38
0.50080967 -0.18542847 0.60999966 1.0879084e-38
0.50838596 -0.18548121 0.60999966 1.0879084e-38
0.51470143 -0.18539388 0.60999972 1.0879084e-38
0.52124113 -0.18550114 0.60999972 1.0879084e-38
0.52897704 -0.18555947 0.60999978 1.0879084e-38
0.53566819 -0.18567045 0.60999984 1.0879084e-38
0.53955626 -0.18301596 0.6099999 1.0879084e-38
0.64888489 -0.1821758 0.61000073 1.0879084e-38
0.6546858 -0.18305235 0.61000067 1.0879084e-38
0.66200495 -0.18438488 0.61000067 1.097128e-38
0.66880918 -0.18518643 0.61000079 1.097128e-38
0.67598152 -0.1853527 0.61000079 1.097128e-38
0.68322974 -0.18551964 0.61000085 1.097128e-38
0.68932611 -0.18550751 0.61000097 1.097128e-38
0.69548035 -0.18549351 0.61000103 1.097128e-38
0.70293522 -0.18566586 0.61000103 1.097128e-38
0.71069938 -0.18518807 0.61000109 1.097128e-38
0.71785408 -0.18572149 0.61000109 1.097128e-38
0.7244941 -0.18505263 0.61000115 1.097128e-38
0.73072755 -0.1856965 0.61000115 1.097128e-38
0.73904192 -0.18550596 0.61000115 1.097128e-38
0.74521035 -0.18571831 0.61000127 1.097128e-38
0.75230426 -0.18547864 0.61000139 1.097128e-38
0.7598632 -0.18570723 0.61000144 1.097128e-38
0.76692718 -0.18534209 0.6100015 1.097128e-38
0.77351314 -0.18568137 0.61000156 1.097128e-38
0.78071004 -0.18531272 0.61000156 1.097128e-38
0.78742045 -0.18565507 0.61000156 1.097128e-38
0.79475391 -0.18528277 0.61000162 1.097128e-38
0.80159223 -0.18562825 0.61000168 1.097128e-38
0.80906624 -0.18525226 0.6100018 1.097128e-38
0.81466013 -0.18558608 0.61000174 1.097128e-38
0.8224799 -0.1856699 0.61000192 1.097128e-38
0.82935745 -0.18555808 0.61000192 1.097128e-38
0.83553022 -0.18581004 0.61000192 1.097128e-38
0.84277421 -0.18547931 0.61000198 1.097128e-38
0.85063678 -0.18578391 0.61000204 1.097128e-38
0.85676277 -0.18556572 0.61000204 1.097128e-38
0.86449128 -0.18555164 0.6100021 1.097128e-38
0.33298603 -0.17854899 0.60999864 1.0879084e-38
0.33981091 -0.17848361 0.60999864 1.0879084e-38
0.34672627 -0.1784173 0.60999864 1.0879084e-38
0.35373399 -0.17835017 0.6099987 1.0879084e-38
0.360836 -0.17856435 0.6099987 1.0879084e-38
0.36803421 -0.1784973 0.6099987 1.0879084e-38
0.37459493 -0.1783642 0.60999876 1.0879084e-38
0.38123977 -0.17851806 0.60999876 1.0879084e-38
0.38871786 -0.17844933 0.60999876 1.0879084e-38
0.39536574 -0.178616 0.60999882 1.0879084e-38
0.40231273 -0.1786194 0.60999888 1.0879084e-38
0.40943211 -0.17855595 0.609999 1.0879084e-38
0.41664696 -0.17849152 0.60999894 1.0879084e-38
0.42386383 -0.17849332 0.60999912 1.0879084e-38
0.43013865 -0.17852119 0.60999912 1.0879084e-38
0.43741742 -0.17845726 0.60999918 1.0879084e-38
0.44474614 -0.17847794 0.60999936 1.0879084e-38
0.45163023 -0.178486 0.60999936 1.0879084e-38
0.45859793 -0.17849463 0.60999948 1.0879084e-38
0.46526697 -0.17852333 0.60999954 1.0879084e-38
0.47201246 -0.17855303 0.60999954 1.0879084e-38
0.47922871 -0.1785617 0.6099996 1.0879084e-38
0.48653474 -0.17857102 0.6099996 1.0879084e-38
0.49368909 -0.17839396 0.60999966 1.0879084e-38
0.50064868 -0.17842951 0.60999966 1.0879084e-38
0.50812519 -0.17844236 0.60999966 1.0879084e-38
0.51484561 -0.17862456 0.60999972 1.0879084e-38
0.52113003 -0.17858425 0.60999972 1.0879084e-38
0.52870774 -0.17840183 0.60999972 1.0879084e-38
0.5358175 -0.17878453 0.60999978 1.0879084e-38
0.5408597 -0.17798942 0.60999995 1.0879084e-38
0.62172502 -0.17630906 0.61000049 1.0879084e-38
0.62729448 -0.17625815 0.61000055 1.0879084e-38
0.63403815 -0.17726366 0.61000061 1.0879084e-38
0.64085048 -0.17738536 0.61000061 1.0879084e-38
0.6479634 -0.17808111 0.61000067 1.0879084e-38
0.6546858 -0.17853576 0.61000067 1.0879084e-38
0.66171092 -0.17836221 0.61000067 1.0879084e-38
0.66880912 -0.17879742 0.61000073 1.097128e-38
0.67619991 -0.17829429 0.61000079 1.097128e-38
0.68300855 -0.17878054 0.61000085 1.097128e-38
0.68932605 -0.17809655 0.61000097 1.097128e-38
0.69525528 -0.17869483 0.61000103 1.097128e-38
0.70293516 -0.17818241 0.61000103 1.097128e-38
0.7102176 -0.17865506 0.61000109 1.097128e-38
0.71808624 -0.17844965 0.61000109 1.097128e-38
0.72449404 -0.17840415 0.61000115 1.097128e-38
0.73118633 -0.17827572 0.61002713 1.097128e-38
0.73880351 -0.1784941 0.61000115 1.097128e-38
0.74539971 -0.17844935 0.61000127 1.097128e-38
0.75179374 -0.17875323 0.61000139 1.097128e-38
0.76013368 -0.17854233 0.61000144 1.097128e-38
0.76692724 -0.17849588 0.6100015 1.097128e-38
0.77378869 -0.17844962 0.6100015 1.097128e-38
0.78071004 -0.1784023 0.61000156 1.097128e-38
0.78770107 -0.1783551 0.61000162 1.097128e-38
0.79475397 -0.17830692 0.61000162 1.097128e-38
0.80213839 -0.17856604 0.61000168 1.097128e-38
0.80906624 -0.17820971 0.6100018 1.097128e-38
0.81507617 -0.17842816 0.61000186 1.097128e-38
0.82191825 -0.17862023 0.61000186 1.097128e-38
0.82956952 -0.17888625 0.61000198 1.097128e-38
0.83553022 -0.17864418 0.61000198 1.097128e-38
0.84304905 -0.17859647 0.61000198 1.097128e-38
0.85063684 -0.17854764 0.61000204 1.097128e-38
0.85676283 -0.17830093 0.61000204 1.097128e-38
0.86477351 -0.17857079 0.6100021 1.097128e-38
0.33309048 -0.17151737 0.60999864 1.0879084e-38
0.33981088 -0.17154646 0.60999864 1.0879084e-38
0.34672627 -0.17143413 0.60999864 1.0879084e-38
0.35385144 -0.17145865 0.6099987 1.0879084e-38
0.360836 -0.17148727 0.6099987 1.0879084e-38
0.36809459 -0.1715136 0.6099987 1.0879084e-38
0.37463361 -0.17137209 0.60999876 1.0879084e-38
0.38117778 -0.1715948 0.60999876 1.0879084e-38
0.38865495 -0.17147833 0.60999876 1.0879084e-38
0.39553508 -0.17166418 0.60999882 1.0879084e-38
0.40256998 -0.17155637 0.60999888 1.0879084e-38
0.40955546 -0.17133227 0.609999 1.0879084e-38
0.41658431 -0.1714901 0.60999894 1.0879084e-38
0.4236435 -0.17157212 0.609999 1.0879084e-38
0.43001014 -0.17155647 0.60999912 1.0879084e-38
0.43748814 -0.17147657 0.60999936 1.0879084e-38
0.44506243 -0.1713959 0.60999936 1.0879084e-38
0.4516308 -0.17157257 0.60999936 1.0879084e-38
0.4582192 -0.17156224 0.60999942 1.0879084e-38
0.46526644 -0.1715284 0.60999954 1.0879084e-38
0.47240034 -0.1714946 0.60999954 1.0879084e-38
0.47907329 -0.17168918 0.6099996 1.0879084e-38
0.48613751 -0.17147183 0.6099996 1.0879084e-38
0.4935289 -0.17143661 0.60999966 1.0879084e-38
0.50097179 -0.17160425 0.60999966 1.0879084e-38
0.50801659 -0.17160027 0.60999966 1.0879084e-38
0.51456755 -0.17136851 0.60999972 1.0879084e-38
0.52146429 -0.17164278 0.60999972 1.0879084e-38
0.52892083 -0.17142506 0.60999978 1.0879084e-38
0.53552973 -0.17140345 0.60999978 1.0879084e-38
0.54229748 -0.17137109 0.60999984 1.0879084e-38
0.58401728 -0.1689489 0.61000025 1.0879084e-38
0.59456974 -0.16878875 0.61000031 1.0879084e-38
0.59884173 -0.16941719 0.61000031 1.0879084e-38
0.60560828 -0.16991565 0.61000031 1.0879084e-38
0.61203957 -0.17100824 0.61000043 1.0879084e-38
0.61951458 -0.1715785 0.61000055 1.0879084e-38
0.62749767 -0.17121813 0.61000055 1.0879084e-38
0.63403815 -0.17192625 0.61000055 1.0879084e-38
0.64085048 -0.1711266 0.61000061 1.0879084e-38
0.64752293 -0.17184049 0.61000067 1.0879084e-38
0.65468585 -0.17130925 0.61000067 1.0879084e-38
0.66171116 -0.17140089 0.61000067 1.0879084e-38
0.66880918 -0.17149569 0.61000079 1.0879084e-38
0.67598182 -0.17158924 0.61000079 1.097128e-38
0.68322951 -0.17168605 0.61000079 1.097128e-38
0.68950111 -0.17110644 0.61000097 1.097128e-38
0.69548017 -0.17153764 0.61000103 1.097128e-38
0.7031852 -0.17129399 0.61000103 1.097128e-38
0.71046996 -0.1717322 0.61000103 1.097128e-38
0.71831816 -0.17117442 0.61000109 1.097128e-38
0.7244941 -0.17175567 0.61000115 1.097128e-38
0.73122394 -0.17133296 0.61000121 1.097128e-38
0.73856425 -0.17148592 0.61000115 1.097128e-38
0.74558914 -0.17117761 0.61000127 1.097128e-38
0.75206113 -0.17162657 0.61000139 1.097128e-38
0.76040435 -0.17137353 0.61000144 1.097128e-38
0.76692718 -0.17164968 0.6100015 1.097128e-38
0.77378869 -0.17157143 0.6100015 1.097128e-38
0.78071004 -0.17149189 0.61000156 1.097128e-38
0.78770107 -0.17141213 0.61000156 1.097128e-38
0.79508185 -0.17166004 0.61019289 1.097128e-38
0.80159235 -0.17161281 0.61000168 1.097128e-38
0.80927265 -0.17162429 0.61000186 1.097128e-38
0.81466013 -0.17144884 0.61000186 1.097128e-38
0.8224799 -0.17145979 0.61000192 1.097128e-38
0.82956946 -0.17174815 0.61000198 1.097128e-38
0.83553022 -0.17147833 0.61000198 1.097128e-38
0.84332365 -0.17170992 0.61000198 1.097128e-38
0.85063678 -0.17131138 0.61000204 1.097128e-38
0.85698241 -0.17150764 0.6100021 1.097128e-38
0.86418092 -0.17132816 0.6100021 1.097128e-38
0.33298606 -0.16448919 0.60999864 1.0879084e-38
0.33981094 -0.1646093 0.60999864 1.0879084e-38
0.3467263 -0.16445093 0.60999864 1.0879084e-38
0.35373402 -0.16457093 0.6099987 1.0879084e-38
0.36083603 -0.16441017 0.6099987 1.0879084e-38
0.36811155 -0.16455363 0.60996425 1.0879084e-38
0.37455642 -0.16456708 0.60999876 1.0879084e-38
0.38111565 -0.16467278 0.60999876 1.0879084e-38
0.38859192 -0.16450854 0.60999876 1.0879084e-38
0.39553511 -0.16435613 0.60999882 1.0879084e-38
0.40250587 -0.16449641 0.60999888 1.0879084e-38
0.40943235 -0.16449404 0.609999 1.0879084e-38
0.41630852 -0.16464409 0.60999894 1.0879084e-38
0.42355874 -0.16445801 0.60999912 1.0879084e-38
0.43026632 -0.16437845 0.60999912 1.0879084e-38
0.43756029 -0.1644944 0.60999918 1.0879084e-38
0.44478434 -0.16454042 0.6099993 1.0879084e-38
0.45149732 -0.16447653 0.60999936 1.0879084e-38
0.45859799 -0.16458447 0.60999942 1.0879084e-38
0.46526697 -0.16453326 0.60999954 1.0879084e-38
0.47201246 -0.16448213 0.60999954 1.0879084e-38
0.47936827 -0.16459237 0.6099996 1.0879084e-38
0.486494 -0.16452675 0.6099996 1.0879084e-38
0.49336982 -0.16448188 0.6099996 1.0879084e-38
0.50080973 -0.16460545 0.60999966 1.0879084e-38
0.5083859 -0.16452704 0.60999966 1.0879084e-38
0.51470143 -0.16433045 0.60999972 1.0879084e-38
0.52129662 -0.16452482 0.60999972 1.0879084e-38
0.52909023 -0.16465235 0.60999978 1.0879084e-38
0.53566825 -0.16424415 0.60999984 1.0879084e-38
0.54255128 -0.16464484 0.6099999 1.0879084e-38
0.54780579 -0.16390583 0.60999995 1.0879084e-38
0.57158107 -0.16201489 0.61000013 1.0879084e-38
0.57823086 -0.16354381 0.61000019 1.0879084e-38
0.58401954 -0.16466787 0.61000019 1.0879084e-38
0.59139025 -0.16444464 0.61000031 1.0879084e-38
0.59900653 -0.1647765 0.61000025 1.0879084e-38
0.60529906 -0.16427408 0.61000031 1.0879084e-38
0.61182094 -0.16461895 0.61000043 1.0879084e-38
0.61951452 -0.16453928 0.61000055 1.0879084e-38
0.62729448 -0.16445605 0.61000055 1.0879084e-38
0.63403815 -0.16480969 0.61000061 1.0879084e-38
0.64105791 -0.16424592 0.61000061 1.0879084e-38
0.64773268 -0.16492666 0.61000061 1.0879084e-38
0.6546858 -0.16408275 0.61000067 1.0879084e-38
0.66149688 -0.16476864 0.61000067 1.0879084e-38
0.668809 -0.16419397 0.61000073 1.0879084e-38
0.67576289 -0.16488762 0.61000079 1.0879084e-38
0.68322945 -0.16430753 0.61000079 1.0879084e-38
0.68915111 -0.16470642 0.61000097 1.097128e-38
0.6957047 -0.16437709 0.61000103 1.097128e-38
0.70270801 -0.16480054 0.61000103 1.097128e-38
0.71046996 -0.16420861 0.61000109 1.097128e-38
0.71783119 -0.16461098 0.61000109 1.097128e-38
0.7244941 -0.16415741 0.61000109 1.097128e-38
0.73072755 -0.16471 0.61000115 1.097128e-38
0.73904192 -0.1643977 0.61000115 1.097128e-38
0.74521035 -0.16451971 0.61000127 1.097128e-38
0.75232887 -0.16449609 0.61000139 1.097128e-38
0.75988746 -0.16461581 0.61000144 1.097128e-38
0.76712227 -0.1642689 0.6100015 1.097128e-38
0.77378863 -0.16469325 0.6100015 1.097128e-38
0.78071004 -0.16458145 0.61000156 1.097128e-38
0.78770107 -0.16446912 0.61000156 1.097128e-38
0.79475385 -0.1643552 0.61000162 1.097128e-38
0.80213839 -0.16454548 0.61000162 1.097128e-38
0.80885983 -0.16467354 0.61000174 1.097128e-38
0.81486815 -0.16483909 0.6100018 1.097128e-38
0.82191825 -0.16441534 0.6100018 1.097128e-38
0.82956952 -0.16461006 0.61000198 1.097128e-38
0.83553028 -0.1643125 0.61000192 1.097128e-38
0.84274709 -0.16456898 0.61000198 1.097128e-38
0.85085475 -0.16454385 0.61000204 1.097128e-38
0.85654312 -0.16433761 0.61000204 1.097128e-38
0.86449128 -0.16469219 0.6100021 1.097128e-38
0.33298606 -0.15759747 0.60999864 1.0879084e-38
0.33981088 -0.15767214 0.60999864 1.0879084e-38
0.34672627 -0.15746777 0.60999864 1.0879084e-38
0.35373402 -0.15754107 0.6099987 1.0879084e-38
0.36089563 -0.15747268 0.6099987 1.0879084e-38
0.36803433 -0.15754931 0.6099987 1.0879084e-38
0.374479 -0.15776357 0.60999876 1.0879084e-38
0.38123959 -0.15760177 0.60999876 1.0879084e-38
0.38884303 -0.15753005 0.60999876 1.0879084e-38
0.39565539 -0.15722118 0.60999882 1.0879084e-38
0.40244171 -0.1574377 0.60999888 1.0879084e-38
0.40930858 -0.15765822 0.60999894 1.0879084e-38
0.41651523 -0.15749051 0.60999894 1.0879084e-38
0.42381206 -0.15731929 0.609999 1.0879084e-38
0.43013862 -0.1574136 0.60999912 1.0879084e-38
0.43727407 -0.15752187 0.60999936 1.0879084e-38
0.44493112 -0.15746696 0.60999936 1.0879084e-38
0.45181766 -0.15734857 0.60999936 1.0879084e-38
0.45821917 -0.15765661 0.60999942 1.0879084e-38
0.46513042 -0.15735418 0.60999954 1.0879084e-38
0.47240031 -0.15741907 0.60999954 1.0879084e-38
0.47907329 -0.15753371 0.6099996 1.0879084e-38
0.48619491 -0.1574256 0.6099996 1.0879084e-38
0.49373034 -0.15749212 0.60999966 1.0879084e-38
0.50064862 -0.15760931 0.60999966 1.0879084e-38
0.50797397 -0.15730222 0.60999966 1.0879084e-38
0.51484567 -0.15755865 0.60999972 1.0879084e-38
0.52113003 -0.15740956 0.60999972 1.0879084e-38
