# .PCD v0.7 - Point Cloud Data file format
VERSION 0.7
FIELDS x y z rgb
SIZE 4 4 4 4
TYPE F F F F
COUNT 1 1 1 1
WIDTH 1007
HEIGHT 1
VIEWPOINT 0 0 0 1 0 0 0
POINTS 1007
DATA ascii
0.57686818 -0.058799207 0.66037953 6.7039912e-39
0.57195944 -0.052288145 0.66142225 5.9693073e-39
0.57463837 -0.055771448 0.6606071 6.9794977e-39
0.56662714 -0.042195451 0.66175747 8.6325366e-39
0.56884068 -0.046395551 0.66151232 5.9693073e-39
0.56427252 -0.038184278 0.66167068 8.6325366e-39
0.55925906 -0.029674817 0.66219926 8.7243721e-39
0.56114119 -0.032768965 0.66103512 8.7243721e-39
0.5566166 -0.02492654 0.66121417 8.7243721e-39
0.55157936 -0.015930081 0.66152751 8.7243721e-39
0.55376011 -0.019816237 0.6615817 8.7243721e-39
0.57950675 -0.020463314 0.66416496 3.9594473e-39
0.54834676 -0.01017982 0.66171062 8.7243721e-39
0.5441981 -0.0025330698 0.66157204 8.7243721e-39
0.54606968 -0.0059709656 0.66134757 8.7243721e-39
0.54092252 0.0034544645 0.66163421 8.7243721e-39
0.53693396 0.010737175 0.66138124 8.7243721e-39
0.53187323 0.019632597 0.66228783 8.7243721e-39
0.53395945 0.01713579 0.66097552 8.9109242e-39
0.52940011 0.024118463 0.66165191 8.7243721e-39
0.52456886 0.032830685 0.6613639 8.7243721e-39
0.52630126 0.029701272 0.66158152 8.7243721e-39
0.52196443 0.038216889 0.66159064 8.7243721e-39
0.52340299 0.043177955 0.66088617 8.7243721e-39
0.52714831 0.046393547 0.66092879 8.7243721e-39
0.56230575 0.046750788 0.66310614 9.4698601e-39
0.53053713 0.049577177 0.66281843 8.7243721e-39
0.53448844 0.052837491 0.66263801 8.7243721e-39
0.53830647 0.056106851 0.66267079 8.7243721e-39
0.54172003 0.058612306 0.66197205 8.7243721e-39
0.54859054 0.061039437 0.66177148 8.7272532e-39
0.55251062 0.064564079 0.66193199 8.7243721e-39
0.55620301 0.066338159 0.66097331 8.7243721e-39
0.56203133 0.068975076 0.66119021 8.7243721e-39
0.5698899 0.072528116 0.66147369 8.7243721e-39
0.6426053 0.11088894 0.66204351 1.1432618e-38
0.64648706 0.10858909 0.66153091 1.1248589e-38
0.63406187 0.11720172 0.66144729 7.1912591e-39
0.63896269 0.11311616 0.66174984 1.1801041e-38
0.62802142 0.12354633 0.66196054 1.2903605e-39
0.63071597 0.12037904 0.66142297 9.219563e-41
0.62459153 0.12922046 0.66112071 1.4747489e-39
0.62144846 0.13651112 0.66156256 2.1197498e-39
0.62009674 0.1435767 0.66172367 3.1346514e-39
0.62010926 0.15125634 0.66127521 1.1985432e-38
0.62285787 0.15573446 0.65888679 1.3644953e-38
0.62688321 0.15696335 0.65937734 1.3183975e-38
0.45460188 0.20280536 0.66183615 6.6427909e-39
0.45767218 0.20021133 0.66173828 7.8402453e-39
0.45088163 0.20637183 0.66112554 8.3930589e-39
0.44581184 0.2136288 0.66165149 7.3792741e-39
0.43980378 0.22231486 0.66136754 5.1673147e-39
0.44234973 0.2187704 0.66164637 4.983285e-39
0.46331805 0.22237003 0.66470432 5.997067e-39
0.43361562 0.23059717 0.66136962 8.4848944e-39
0.43619147 0.22723177 0.66148597 6.6427937e-39
0.64258069 0.22567782 0.66164786 9.0426154e-39
0.43149656 0.23407181 0.66173071 8.7614799e-39
0.6219461 0.23719841 0.66258115 8.2142757e-39
0.62459987 0.23580532 0.66075313 9.2280675e-39
0.42879066 0.2414071 0.66205293 8.0242792e-39
0.61280102 0.24263014 0.66231972 8.3064685e-39
0.61881912 0.23911509 0.66158783 8.3064685e-39
0.42910218 0.24815755 0.6614753 6.3658425e-39
0.60542548 0.24889094 0.66165817 8.3064685e-39
0.60923356 0.24522944 0.6594792 8.3064685e-39
0.43236554 0.25335714 0.66214061 5.2558726e-39
0.43600157 0.25717834 0.66141808 6.1774659e-39
0.5986281 0.25581262 0.66174382 8.3064685e-39
0.60215479 0.25222844 0.66023529 8.3064685e-39
0.58443272 0.25941843 0.66428888 8.7660285e-39
0.592053 0.26260927 0.66147316 8.3064685e-39
0.5953328 0.25921142 0.66077113 8.3064685e-39
0.584831 0.26992694 0.66175991 9.1341048e-39
0.58839905 0.26627281 0.66022587 8.3064685e-39
0.57819891 0.27689075 0.66168368 8.9500653e-39
0.58164173 0.27330846 0.65955377 8.5823435e-39
0.57139862 0.2842828 0.6613971 8.3064685e-39
0.57457179 0.28076181 0.66156834 8.3064685e-39
0.56472921 0.29168877 0.66124213 9.4096211e-39
0.56765932 0.28849357 0.66225564 8.3983054e-39
0.55852854 0.29912603 0.66140598 9.7776974e-39
0.5611549 0.29584837 0.66167617 8.5819876e-39
0.55430138 -0.29750606 0.6684103 2.8599577e-39
0.55611032 -0.29018033 0.6687631 7.9295837e-39
0.55686992 -0.28338498 0.66815221 1.1432621e-38
0.55789858 -0.2761398 0.66902405 1.0324106e-38
0.55880761 -0.26939863 0.66822106 5.892219e-39
0.5596562 -0.26390359 0.66837305 5.9836944e-39
0.56026417 -0.26082924 0.6696077 5.983693e-39
0.56101811 -0.25534111 0.66827732 5.8914988e-39
0.56218958 -0.24856408 0.66883796 5.9836944e-39
0.56323969 -0.24113159 0.66854668 5.8918575e-39
0.56408048 -0.23470682 0.66858888 5.9836944e-39
0.56494385 -0.22741175 0.66819757 5.8914988e-39
0.56590194 -0.22073929 0.66905171 5.8918575e-39
0.56639594 -0.21345069 0.66841519 6.9096178e-39
0.56662101 -0.20661303 0.6668219 1.0785805e-38
0.56731904 -0.20572312 0.67001486 1.1154948e-38
0.56669343 -0.20163076 0.66560876 1.1708846e-38
0.56767029 -0.19952217 0.6691612 1.1616651e-38
0.56861508 -0.1928066 0.66853279 4.4269064e-39
0.57065672 -0.18541685 0.66873127 2.8599577e-39
0.57274741 -0.17921647 0.6680482 2.8599577e-39
0.57474047 -0.1768491 0.66988683 2.8599577e-39
0.57699186 -0.17125301 0.66833198 2.8599577e-39
0.57970726 -0.16620517 0.66854143 2.8599577e-39
0.58296663 -0.16368689 0.66723347 2.9521547e-39
0.58970523 -0.16381948 0.66514176 3.2287486e-39
0.5790965 -0.065131992 0.66931236 6.9794977e-39
0.58219069 -0.068419963 0.66931593 7.8103388e-39
0.57582629 -0.05954168 0.66899067 6.7958267e-39
0.57197487 -0.052542675 0.6684683 6.8876622e-39
0.56685686 -0.043453723 0.66930914 8.7243721e-39
0.56860769 -0.046464715 0.66770571 7.8060172e-39
0.56408107 -0.038483839 0.66899019 8.7243721e-39
0.55900365 -0.029261578 0.66830003 8.7243721e-39
0.5608204 -0.032547541 0.66853541 8.7243721e-39
0.55624056 -0.024345953 0.66801059 8.7243721e-39
0.55193132 -0.01684425 0.66925979 8.7243721e-39
0.55373025 -0.019980188 0.66883761 8.7243721e-39
0.54850841 -0.010650544 0.66858715 8.7243721e-39
0.54463875 -0.003402055 0.66853744 8.7243721e-39
0.53899246 0.0069873622 0.66831434 8.7243721e-39
0.54104763 0.0032197612 0.66838336 8.7243721e-39
0.53684729 0.010827961 0.66861171 8.7243721e-39
0.53167421 0.01964331 0.66783381 8.7243721e-39
0.53354168 0.016495567 0.66876423 8.7243721e-39
0.529015 0.024347577 0.66888398 8.7243721e-39
0.52455157 0.033205096 0.66633171 8.7243721e-39
0.52648526 0.031312831 0.66936427 8.7243721e-39
0.52350372 0.038843635 0.66759199 8.7243721e-39
0.52545357 0.037850276 0.6707654 8.8162076e-39
0.55414134 0.03877753 0.67022222 3.9667018e-39
0.52301401 0.044245381 0.66906786 8.7243721e-39
0.52800006 0.047900312 0.66503179 8.7243721e-39
0.53548187 0.055294562 0.67047697 8.7243721e-39
0.54261857 0.059242509 0.66864544 8.7243721e-39
0.54845089 0.062607259 0.66866082 8.7243721e-39
0.55130434 0.064296253 0.66878635 8.7243721e-39
0.55559266 0.066697471 0.66860247 8.7243721e-39
0.56172901 0.069470145 0.66943622 8.7243721e-39
0.56666034 0.07132405 0.66825956 8.7243721e-39
0.56803805 0.071250305 0.67168802 8.8162076e-39
0.6417684 0.11095469 0.66905564 1.1432618e-38
0.64791781 0.10812037 0.66863239 1.0695775e-38
0.6339218 0.11690122 0.66875499 8.2922075e-39
0.63907653 0.11313447 0.66781014 1.1708845e-38
0.62836474 0.12306016 0.66892189 3.2164032e-39
0.63097888 0.11995736 0.66761827 2.3888089e-39
0.62271804 0.13271588 0.66946417 3.6745059e-39
0.62470156 0.12873487 0.66844088 3.3103897e-39
0.62114733 0.13665058 0.66848356 3.5837466e-39
0.62021363 0.14386721 0.66809112 6.7202042e-39
0.62013006 0.15015197 0.66756094 1.1801041e-38
0.62256932 0.15478323 0.66834724 1.1801041e-38
0.62429935 0.1566022 0.66891146 1.1801041e-38
0.45436171 0.20265539 0.66899127 6.1821757e-39
0.45830014 0.20042409 0.6680311 7.1952388e-39
0.46523714 0.19899809 0.66906488 7.837353e-39
0.46914428 0.19953939 0.66960675 7.2838149e-39
0.45100349 0.20636591 0.66822231 6.1821757e-39
0.44604841 0.21349351 0.66855437 5.0769183e-39
0.4482885 0.21001284 0.66540158 7.6558582e-39
0.43987742 0.22243327 0.66818273 1.573518e-39
0.44242802 0.21890292 0.66887099 1.4831217e-39
0.4336915 0.2303775 0.66672605 5.8130372e-39
0.43635333 0.22722834 0.66850966 2.0352109e-39
0.43152645 0.234078 0.66873407 6.2743699e-39
0.62126034 0.23656106 0.66858894 8.2139169e-39
0.62511766 0.2362629 0.66925091 9.8727278e-39
0.42917505 0.24161676 0.66912782 6.2740112e-39
0.61301166 0.24243954 0.66824043 8.3064685e-39
0.61709368 0.23906054 0.66961181 8.3064685e-39
0.42989039 0.24776885 0.66885412 5.9048657e-39
0.60575557 0.24868385 0.6682983 8.3064685e-39
0.60962397 0.24533594 0.6694302 8.3064685e-39
0.43245795 0.25381926 0.668374 5.7179339e-39
0.4346447 0.25604361 0.66919279 5.7168493e-39
0.59901518 0.2555646 0.66831219 8.3064685e-39
0.60226715 0.25215763 0.67051554 8.3064685e-39
0.44193953 0.26080799 0.66778988 6.7306411e-39
0.59179944 0.26293322 0.66827279 8.3064685e-39
0.59544039 0.25929666 0.66976106 8.3064685e-39
0.5533185 0.26775852 0.66502249 8.7660257e-39
0.58491218 0.26997846 0.66888154 9.4096197e-39
0.5882954 0.26644075 0.66819453 8.3064685e-39
0.57830089 0.27700612 0.66846031 9.0419036e-39
0.58160436 0.27344474 0.66745359 8.4901479e-39
0.59500092 0.27586412 0.66618103 8.3064685e-39
0.57135719 0.28439578 0.6684379 8.3064685e-39
0.57471037 0.28081405 0.66836351 8.3064685e-39
0.56485832 0.29140532 0.66845804 9.3177828e-39
0.56804901 0.28789139 0.66842318 8.3983054e-39
0.55826664 0.29935053 0.66845334 8.5819876e-39
0.56132865 0.29562867 0.66865522 9.4099826e-39
0.5546782 -0.29752454 0.67528856 3.3205715e-39
0.55659485 -0.29071644 0.67559314 1.0971647e-38
0.55761552 -0.2833921 0.67529905 1.1801041e-38
0.55859947 -0.27682894 0.67574257 1.1339341e-38
0.55945516 -0.27004412 0.67476416 6.6308659e-39
0.56024092 -0.26684469 0.67740148 5.800022e-39
0.56072563 -0.26222929 0.67573249 5.983693e-39
0.5618372 -0.25531772 0.67558759 5.8914988e-39
0.56297773 -0.24840224 0.67540967 5.983693e-39
0.56394553 -0.24142297 0.67591512 5.9836944e-39
0.56523538 -0.23451464 0.67509091 5.8918575e-39
0.56620616 -0.22795261 0.67564261 5.8918575e-39
0.56703705 -0.22443663 0.67812258 5.9836944e-39
0.56671739 -0.22099264 0.67411679 5.8914988e-39
0.5672546 -0.22014254 0.67698884 5.8918575e-39
0.56695449 -0.21571095 0.6730758 6.0758886e-39
0.56747353 -0.21340784 0.67538869 5.8922176e-39
0.56799126 -0.20659496 0.67561853 1.1062754e-38
0.56858653 -0.19962983 0.67596632 1.1524455e-38
0.56933254 -0.19243634 0.67575318 4.2425166e-39
0.57162082 -0.18557622 0.67559046 2.8599577e-39
0.5957911 -0.18838097 0.67344719 2.7756668e-39
0.57352185 -0.18043646 0.67375952 2.8599577e-39
0.57525444 -0.17769231 0.67603195 2.8599577e-39
0.57793409 -0.17167488 0.67593712 2.8599577e-39
0.58029127 -0.16664739 0.67556411 2.8599577e-39
0.58173484 -0.16368552 0.67505306 2.8599577e-39
0.56680286 -0.07253021 0.67553878 1.4289957e-38
0.58657205 -0.070997439 0.67574954 8.1985685e-39
0.58039236 -0.063478172 0.6741516 7.0713332e-39
0.58306396 -0.066893265 0.67468876 6.6125159e-39
0.57720268 -0.05925303 0.67471021 6.2448137e-39
0.57192981 -0.052477252 0.67525661 6.8876622e-39
0.56658411 -0.043161221 0.67483956 8.7243721e-39
0.56844568 -0.046474598 0.6750412 8.7243721e-39
0.56406295 -0.038797412 0.67600501 8.7243721e-39
0.55896503 -0.029662833 0.67561394 8.7243721e-39
0.56112701 -0.03350009 0.67539877 8.7243721e-39
0.55588549 -0.024155449 0.67539096 8.7243721e-39
0.53921944 -0.019776685 0.67237413 6.7144029e-39
0.55180645 -0.016904742 0.67591143 8.7243721e-39
0.55360806 -0.020135993 0.67613447 8.7243721e-39
0.54822689 -0.010467942 0.67545843 8.7243721e-39
0.53743118 -0.0025816872 0.67215204 8.7243721e-39
0.54429227 -0.0032570758 0.67550337 8.7243721e-39
0.54077661 0.0032719467 0.67554009 8.7243721e-39
0.53697628 0.010361499 0.67538548 8.7243721e-39
0.53173542 0.019657599 0.67557907 8.7243721e-39
0.53357816 0.016525537 0.67566621 8.7243721e-39
0.52895463 0.024334839 0.67549127 8.7243721e-39
0.52284974 0.031240221 0.67675287 8.9998786e-39
0.52737522 0.03027828 0.67642868 8.8244907e-39
0.52333987 0.039493911 0.6772548 9.6430872e-39
0.52585232 0.035231534 0.67326063 8.8165678e-39
0.5242036 0.044974711 0.67501825 9.6427271e-39
0.52614808 0.046568438 0.67761564 1.019374e-38
0.52489352 0.04919026 0.67458707 1.019374e-38
0.52877373 0.050795097 0.67660379 9.6427271e-39
0.53454983 0.054708578 0.67590463 8.7243721e-39
0.542521 0.059046756 0.67528343 8.7243721e-39
0.54820156 0.062382769 0.67549145 8.7243721e-39
0.55095464 0.064055465 0.67573714 8.7243721e-39
0.55554169 0.066760346 0.67593491 8.7243721e-39
0.56397355 0.069379784 0.67431527 8.7243721e-39
0.56969589 0.071250908 0.67345154 8.8162076e-39
0.64155143 0.1108507 0.6748724 1.1432618e-38
0.64769828 0.1079476 0.67592877 1.1064196e-38
0.63464969 0.11607148 0.67602175 1.0411988e-38
0.63812757 0.11316938 0.67489332 1.1801041e-38
0.62751436 0.12419794 0.6754781 6.1529923e-39
0.63078296 0.12022134 0.67556763 6.1529923e-39
0.62292761 0.13233545 0.67437226 6.2448278e-39
0.6242581 0.12953636 0.6756767 6.1529923e-39
0.62129229 0.1362921 0.67562753 6.1529923e-39
0.62009227 0.14325188 0.67529768 7.8193533e-39
0.62025332 0.1502602 0.67491394 1.1523373e-38
0.62104166 0.1540733 0.67399925 1.1801041e-38
0.62535793 0.15672457 0.67566073 1.1801041e-38
0.45496494 0.20257202 0.6733852 6.2743699e-39
0.45828739 0.20029853 0.67584783 8.3004976e-39
0.4620958 0.19864044 0.6779967 9.6819859e-39
0.4509967 0.20655669 0.67556494 6.3665656e-39
0.44592386 0.21383397 0.67521137 4.982206e-39
0.44816986 0.21012504 0.67368531 6.1821757e-39
0.43976778 0.22260608 0.67544472 2.8577646e-39
0.442536 0.21891479 0.67577863 3.5938765e-39
0.43396002 0.23072885 0.67305845 5.9052315e-39
0.43626583 0.22735783 0.67564583 2.4907912e-39
0.45137477 0.22905906 0.67553502 5.7194039e-39
0.43164161 0.23453456 0.67554522 6.2740112e-39
0.62062389 0.23700257 0.67576653 9.4138782e-39
0.62392676 0.23631848 0.67833227 9.5046502e-39
0.43003434 0.24127251 0.67577839 6.1821757e-39
0.61274898 0.24255131 0.6756258 8.4912157e-39
0.61758679 0.23916793 0.67619556 9.4138782e-39
0.42952502 0.24896228 0.67584556 6.1814512e-39
0.60571975 0.24863428 0.67538249 8.3064685e-39
0.43226957 0.25346124 0.67590773 6.2714706e-39
0.43514478 0.25618854 0.67375845 6.2700231e-39
0.59887308 0.25585082 0.67547202 8.3064685e-39
0.60214603 0.25243819 0.67836875 8.3064685e-39
0.59195822 0.26292619 0.67513716 8.3064685e-39
0.59536088 0.2595337 0.67757988 8.3064685e-39
0.58519036 0.26995125 0.67554665 9.4096197e-39
0.58832783 0.26666421 0.67590177 8.3064685e-39
0.57814109 0.27713647 0.6755935 8.5823477e-39
0.58163881 0.27361077 0.67517281 9.9617355e-39
0.57120001 0.28440779 0.6755932 8.3064685e-39
0.57464814 0.28077373 0.67534494 8.3064685e-39
0.56471962 0.29138315 0.67573792 9.7776988e-39
0.56768471 0.28813931 0.67472321 8.3983054e-39
0.58539528 0.28864875 0.67726058 1.0234029e-38
0.55821705 0.29902351 0.67572373 8.3064685e-39
0.56120789 0.29546022 0.67529452 9.2259403e-39
0.55480421 -0.29768971 0.68259919 3.9659339e-39
0.53526419 -0.28704202 0.68060064 1.1708845e-38
0.55705065 -0.29069251 0.682702 1.1801041e-38
0.55823147 -0.28384474 0.68208802 1.1801041e-38
0.55934983 -0.27654001 0.68281257 1.1708845e-38
0.55983722 -0.27129427 0.67963338 1.1340061e-38
0.56044894 -0.26895082 0.68277907 1.1062753e-38
0.56134796 -0.26244995 0.68262643 9.6780132e-39
0.56242704 -0.25555781 0.68252474 7.8315741e-39
0.56361967 -0.24843842 0.68246514 6.9081744e-39
0.5648526 -0.24144955 0.68259811 6.8159788e-39
0.5660395 -0.23443452 0.68212688 6.4464746e-39
0.56685787 -0.22957622 0.68176079 5.8003821e-39
0.56742138 -0.22703414 0.68320936 8.3858296e-39
0.56803995 -0.22044191 0.68214852 8.3854709e-39
0.5685519 -0.21328713 0.68236816 1.0231909e-38
0.5691036 -0.20653616 0.68299228 1.1708845e-38
0.56955636 -0.19952181 0.68280041 1.1616651e-38
0.57019305 -0.19256178 0.68216783 5.0722688e-39
0.5720998 -0.18575379 0.68268913 2.8606751e-39
0.57410842 -0.18207277 0.6794458 2.8599577e-39
0.57338607 -0.18060808 0.68459445 2.8599577e-39
0.57493371 -0.17774534 0.68224168 2.8599577e-39
0.57722664 -0.17191488 0.68236095 2.8599577e-39
0.57940817 -0.16591707 0.68305218 2.8599577e-39
0.58312559 -0.16262484 0.68261087 2.951796e-39
0.58913255 -0.16275083 0.68385208 3.1361914e-39
0.5856092 -0.071382783 0.68306309 8.6642256e-39
0.58005464 -0.06381911 0.68098187 6.6143165e-39
0.58296347 -0.067980647 0.68249011 6.9924611e-39
0.57367015 -0.056026541 0.68254614 7.9896882e-39
0.57612205 -0.059421759 0.68235409 6.5210405e-39
0.57131743 -0.052071378 0.68270999 8.6332569e-39
0.56632137 -0.043175794 0.68222499 8.7247323e-39
0.56810254 -0.046360668 0.68188739 8.7247323e-39
0.56386644 -0.03878158 0.682917 8.817288e-39
0.57576817 -0.037826527 0.68403834 5.4323997e-39
0.55896097 -0.02990461 0.68185318 8.7250924e-39
0.56115699 -0.033884376 0.6825422 8.817288e-39
0.55589831 -0.0244512 0.68240106 7.9911399e-39
0.5515452 -0.016690563 0.68267292 7.6245238e-39
0.55332875 -0.019903423 0.68291074 7.4415773e-39
0.5479461 -0.010287887 0.68225628 7.6245238e-39
0.54390812 -0.0031106325 0.68244457 7.3497418e-39
0.54058379 0.0030646517 0.68249124 8.1766116e-39
0.53689408 0.010075075 0.68242848 9.0978364e-39
0.53176689 0.019671844 0.68326974 9.5634963e-39
0.53347421 0.016554594 0.68225294 9.0981965e-39
0.52903742 0.024322093 0.68234712 9.2843885e-39
0.52402043 0.03280155 0.68225175 9.3769442e-39
0.5258261 0.029726818 0.68235111 9.3769442e-39
0.52300024 0.037806284 0.68215328 9.8400832e-39
0.52772361 0.045245066 0.68105221 1.0290978e-38
0.51285917 0.049553655 0.68280286 1.1708485e-38
0.53109908 0.049988098 0.68032384 1.019374e-38
0.53498328 0.053208422 0.68219513 9.9239957e-39
0.52929366 0.056414306 0.67931992 1.1616649e-38
0.54191154 0.05862052 0.68252766 8.8295326e-39
0.54781741 0.062150534 0.68242216 8.8295326e-39
0.55056834 0.063814066 0.68266708 8.8298927e-39
0.55553526 0.066618554 0.68304235 9.2933918e-39
0.54504985 0.077286072 0.68077767 1.6595212e-38
0.64328092 0.10219264 0.68522877 1.1064196e-38
0.64190942 0.1106272 0.68135387 1.1340423e-38
0.64622694 0.10876473 0.68315244 1.0695775e-38
0.63439524 0.11659132 0.68292683 1.0319431e-38
0.6381532 0.11330887 0.68301135 1.1801041e-38
0.62808508 0.12371999 0.68246609 6.2448278e-39
0.63113374 0.11993244 0.68229985 6.2448278e-39
0.62463343 0.12912136 0.68240774 6.2448278e-39
0.62128228 0.13642099 0.68233865 6.5228552e-39
0.61957681 0.14352657 0.68314677 8.9310987e-39
0.61979032 0.15093519 0.68258911 1.1708845e-38
0.6321218 0.14842083 0.68053067 1.3737149e-38
0.62252641 0.15507616 0.68248546 1.1801041e-38
0.62658995 0.15709475 0.68341184 1.1801041e-38
0.63076442 0.15949915 0.6806916 1.1801041e-38
0.4543899 0.20277262 0.68093789 9.1299023e-39
0.45837867 0.2009275 0.683016 7.1952416e-39
0.46417716 0.19852369 0.68263698 9.1288107e-39
0.47811484 0.20013626 0.68311554 8.2086677e-39
0.45138764 0.2064203 0.68270367 8.3008633e-39
0.4457989 0.21408154 0.68232399 6.9154121e-39
0.44835749 0.21036851 0.68135786 8.6692843e-39
0.43981335 0.22243458 0.6826939 3.0417916e-39
0.44220963 0.21914795 0.68252045 3.8700991e-39
0.43398449 0.23071425 0.68106031 9.7741871e-39
0.43633965 0.22734985 0.68246114 3.5953227e-39
0.43200141 0.23443635 0.68274456 8.3927002e-39
0.62282288 0.23760784 0.67960423 9.7830181e-39
0.62519681 0.23671117 0.68145287 8.3036281e-39
0.4289771 0.2409385 0.68301922 7.8402481e-39
0.58670366 0.24306758 0.68198925 8.490857e-39
0.61293447 0.24331248 0.68318886 8.5834099e-39
0.61886817 0.23994647 0.68162894 8.952547e-39
0.4298065 0.24857387 0.68197155 6.1796407e-39
0.60569096 0.24895628 0.6825909 8.3064685e-39
0.60966355 0.24543802 0.68219405 8.7681585e-39
0.43314022 0.25350475 0.68299836 6.2703832e-39
0.4356373 0.25646836 0.6822952 6.6388056e-39
0.59891242 0.25589436 0.68274075 8.3064685e-39
0.60247684 0.25212669 0.68052423 8.3064685e-39
0.59198546 0.26302028 0.68242896 8.3064685e-39
0.59545112 0.25947455 0.68256843 8.3064685e-39
0.58488059 0.27018043 0.68219429 1.0053575e-38
0.58844012 0.26661262 0.68214935 8.3064685e-39
0.5778963 0.27726755 0.68274349 8.3064685e-39
0.58138037 0.27364483 0.68316287 8.5819862e-39
0.57135117 0.28426507 0.68271881 8.3064685e-39
0.57468361 0.28068045 0.68127853 8.3064685e-39
0.5643819 0.29174635 0.68277317 8.7660243e-39
0.56779253 0.28808039 0.6817683 8.3983054e-39
0.55820483 0.29883298 0.68249613 8.3064685e-39
0.56107682 0.29534817 0.68230504 8.3983082e-39
0.55538929 -0.29744425 0.689403 3.6893498e-39
0.55742198 -0.29062346 0.68983996 1.1063841e-38
0.55862314 -0.28337678 0.68932241 1.1801041e-38
0.5596143 -0.2771917 0.68957984 1.1801041e-38
0.5601604 -0.27414098 0.69002247 1.1801041e-38
0.54086614 -0.26893973 0.68723726 8.9433657e-39
0.56089836 -0.26949698 0.689803 1.1801041e-38
0.56199431 -0.26241761 0.68959695 1.1708845e-38
0.54919058 -0.25468412 0.68907434 5.1748831e-39
0.5631128 -0.25533521 0.68936247 1.1708845e-38
0.56430733 -0.2484995 0.68938577 1.1708845e-38
0.56557149 -0.24143866 0.68963552 1.1708844e-38
0.57136321 -0.23943526 0.6880607 4.5191007e-39
0.5665502 -0.23522191 0.68866044 1.1616648e-38
0.56720167 -0.23202957 0.69061947 1.1801041e-38
0.56803644 -0.22721377 0.68959332 1.1708845e-38
0.56884485 -0.22043656 0.68910736 1.1708845e-38
0.56955409 -0.21360497 0.68970072 1.1801041e-38
0.57009792 -0.20641074 0.68972218 1.1708845e-38
0.57058328 -0.19923033 0.68909222 8.2061678e-39
0.57130349 -0.19255911 0.68980759 2.9521519e-39
0.57278794 -0.18540786 0.689381 2.8599577e-39
0.57374454 -0.18134567 0.68878728 2.8599577e-39
0.5750066 -0.17825478 0.69006145 2.8599577e-39
0.57752854 -0.17118341 0.68973619 2.8599577e-39
0.57973653 -0.16599193 0.68883556 2.8599577e-39
0.58303106 -0.16362645 0.68968046 2.8599591e-39
0.59151697 -0.16389458 0.68981981 3.1361914e-39
0.59744024 -0.1647297 0.69029725 3.1361914e-39
0.58515596 -0.070768714 0.6911872 1.1340783e-38
0.57981277 -0.064624406 0.68888211 1.0590612e-38
0.58264351 -0.06772951 0.6904639 1.0324104e-38
0.57694358 -0.059877969 0.68963093 1.0779324e-38
0.54462069 -0.053050786 0.69283491 3.6901065e-39
0.57180589 -0.052584577 0.68908805 1.0682087e-38
0.57462406 -0.055550881 0.69147778 1.2353482e-38
0.5662517 -0.043213595 0.68928653 1.0683166e-38
0.56847727 -0.047082469 0.68997109 1.0870438e-38
0.56327391 -0.038111556 0.68975008 1.0962994e-38
0.5589655 -0.030710755 0.68982595 9.0301509e-39
0.56071967 -0.033701286 0.68868393 1.0590251e-38
0.55548036 -0.024482073 0.68979168 3.2262137e-39
0.57524961 -0.022371287 0.68709671 7.4386752e-39
0.55135679 -0.017097265 0.68977517 3.1347397e-39
0.62574089 -0.014935328 0.69007242 1.0511826e-38
0.54784864 -0.010732755 0.68925059 3.1347397e-39
0.54422086 -0.0038696805 0.68948704 3.042907e-39
0.5405646 0.003324572 0.68939131 8.0192556e-39
0.53696483 0.010364136 0.68957865 1.1522652e-38
0.53168964 0.01968405 0.68974799 1.1615923e-38
0.53336942 0.016895896 0.68978727 1.152265e-38
0.52911979 0.024308465 0.68989223 1.1615565e-38
0.52439022 0.033137478 0.6881454 1.1523369e-38
0.52597082 0.030598391 0.6903252 1.1615926e-38
0.52276683 0.03781284 0.68990153 1.1616286e-38
0.52359235 0.043430075 0.69176793 1.1616648e-38
0.52762371 0.047076311 0.68987381 1.1523009e-38
0.53095752 0.050037611 0.68945837 1.1523369e-38
0.53503257 0.05372842 0.69036704 1.0141159e-38
0.54123414 0.054521434 0.69209278 1.3552755e-38
0.54257321 0.058834817 0.68929458 8.9415356e-39
0.5479638 0.061920311 0.68985873 8.942616e-39
0.55072552 0.06361746 0.68881792 9.0337312e-39
0.55646551 0.066940963 0.68988651 1.0509582e-38
0.5613535 0.06859608 0.69292271 1.4105929e-38
0.56386715 0.070837706 0.69012123 1.2998861e-38
0.56919485 0.072123438 0.69191271 1.401337e-38
0.64195949 0.11077445 0.68961614 1.1340064e-38
0.64733875 0.10848001 0.68962944 1.0695773e-38
0.63451749 0.11701422 0.68908989 9.9492093e-39
0.63876545 0.11309572 0.68938404 1.1708845e-38
0.62861621 0.1237319 0.68924874 6.8001623e-39
0.63087273 0.12068737 0.69015443 6.9859941e-39
0.62290424 0.13286406 0.68836194 6.2448292e-39
0.62499452 0.12908262 0.68975449 6.7083268e-39
0.62143379 0.13680668 0.68940616 7.0781898e-39
0.62028259 0.14328845 0.69009072 9.4860717e-39
0.61984563 0.14991909 0.68899286 1.1801041e-38
0.62606406 0.15680918 0.68904984 1.1801041e-38
0.45978034 0.20117953 0.68881559 6.2743699e-39
0.4637925 0.19894041 0.68947977 8.4841658e-39
0.45142663 0.20662917 0.6894083 6.1821757e-39
0.45594558 0.20348473 0.68921125 6.1821757e-39
0.4459756 0.21376377 0.68951112 5.2595089e-39
0.44823456 0.21026179 0.69073051 6.1821757e-39
0.4398402 0.22237046 0.68923026 2.5829854e-39
0.44232115 0.21890309 0.68964028 2.6755384e-39
0.43650672 0.22725038 0.68967706 3.5056494e-39
0.43219849 0.23451266 0.6893158 6.3662068e-39
0.43400037 0.23117724 0.68633425 5.9977858e-39
0.62141842 0.23756723 0.68879604 8.2139183e-39
0.62407935 0.23624006 0.6895352 7.9352015e-39
0.42879379 0.24161701 0.68971658 7.1952416e-39
0.61383206 0.24294186 0.68964857 8.3064685e-39
0.61816728 0.23988883 0.68856716 8.3064685e-39
0.43063259 0.24862091 0.68928647 6.1785519e-39
0.60555267 0.24934243 0.68953663 8.3064685e-39
0.61015362 0.2459733 0.68856895 8.3064685e-39
0.43356252 0.25309217 0.68968838 5.8090449e-39
0.43587396 0.25587282 0.68894529 5.9012392e-39
0.59875363 0.25585654 0.68980443 8.3064685e-39
0.60226589 0.25237074 0.68836421 8.3064685e-39
0.59184963 0.26293793 0.68983585 8.3064685e-39
0.5953989 0.25936016 0.68769169 8.3064685e-39
0.58481342 0.27004877 0.68924665 8.9500639e-39
0.58833003 0.26650244 0.68986517 8.3064685e-39
0.57820016 0.27691406 0.68943197 8.3064685e-39
0.58122599 0.27372283 0.69093269 8.3064685e-39
0.57148665 0.28407681 0.68965214 8.3064685e-39
0.57461268 0.28073558 0.68897367 8.3064685e-39
0.58464587 0.2858032 0.68994552 7.8408801e-39
0.56473517 0.29146555 0.6894452 8.3064685e-39
0.56777012 0.28809458 0.68940532 8.3064685e-39
0.55831963 0.2987749 0.68966287 8.3064685e-39
0.56115836 0.29544291 0.68921041 8.3064685e-39
0.55581814 -0.29762876 0.6964556 2.8599577e-39
0.55784971 -0.29048517 0.69661337 1.0141896e-38
0.55928314 -0.28396696 0.69588035 1.1801041e-38
0.56017208 -0.28093186 0.69856781 1.1801041e-38
0.55985761 -0.2796514 0.69480389 1.1801041e-38
0.5606727 -0.2760919 0.69645649 1.1801041e-38
0.56175238 -0.26961747 0.69679743 1.1801041e-38
0.56274563 -0.26243222 0.69661045 1.1431536e-38
0.56389779 -0.25577888 0.69640833 1.1801041e-38
0.56508297 -0.24826597 0.69635248 1.1801041e-38
0.56614453 -0.24148442 0.69676477 1.1801041e-38
0.56675231 -0.23689066 0.69556481 1.1801041e-38
0.56731951 -0.23366228 0.69648409 1.1801041e-38
0.56829548 -0.22747765 0.69677418 1.1801041e-38
0.56949008 -0.2204475 0.69612771 1.1432261e-38
0.5924322 -0.21714015 0.69516397 7.0184174e-39
0.57044882 -0.21341762 0.69679028 1.1063483e-38
0.57118338 -0.20627311 0.69620639 9.4043382e-39
0.57179922 -0.19964503 0.69661313 4.5191007e-39
0.5724262 -0.19232327 0.69648421 2.8599577e-39
0.57337964 -0.18725502 0.69633758 2.8599577e-39
0.57442653 -0.18409145 0.69734043 2.8599577e-39
0.57629472 -0.17837307 0.69597244 2.8599577e-39
0.57873183 -0.17174661 0.69621116 2.8599577e-39
0.58114177 -0.16820498 0.69354111 2.9517946e-39
0.58067352 -0.16649264 0.69743156 2.8599577e-39
0.58312249 -0.16432476 0.69613785 2.8599577e-39
0.58732587 -0.071242601 0.69441599 1.1709565e-38
0.58958846 -0.071088821 0.69711256 1.3369807e-38
0.56631249 -0.064496435 0.69439137 1.0777165e-38
0.58038241 -0.063592546 0.69695467 1.4659105e-38
0.58433193 -0.06645228 0.69684428 1.2261653e-38
0.58904696 -0.068900727 0.69899738 1.3369448e-38
0.57724786 -0.059339479 0.69764203 1.3091779e-38
0.61365879 -0.058446679 0.6988821 1.4843496e-38
0.57213092 -0.052357104 0.6972295 1.2538244e-38
0.57424647 -0.055048369 0.69942641 1.4382518e-38
0.56641275 -0.042670678 0.69494718 1.1616285e-38
0.56878436 -0.046183202 0.69712961 1.2446407e-38
0.56433344 -0.038214762 0.69699234 1.2353851e-38
0.56773049 -0.04196126 0.69995922 1.4289953e-38
0.55911767 -0.029774997 0.69523239 9.2199483e-39
0.56116283 -0.032167125 0.69732732 1.2815193e-38
0.55666482 -0.024262309 0.69707412 2.9521575e-39
0.54350829 -0.016088907 0.69988698 1.023486e-38
0.55187857 -0.016308313 0.69564462 2.8599577e-39
0.55385453 -0.018084237 0.69809437 2.8599577e-39
0.62551469 -0.016945302 0.69913101 1.97295e-38
0.54926109 -0.010828723 0.69643021 2.8599577e-39
0.5445345 -0.0022948843 0.69626951 2.9521575e-39
0.5469532 -0.0053672898 0.69813687 3.1365544e-39
0.5419004 0.0035022572 0.69701695 8.6671375e-39
0.53744179 0.011747262 0.69654435 1.0417745e-38
0.53970736 0.0082062436 0.69770056 1.0879084e-38
0.53453845 0.017337 0.69701552 1.0233714e-38
0.53022772 0.025117924 0.69598365 9.9571266e-39
0.53247344 0.021845989 0.6980263 9.1273674e-39
0.56454825 0.021333713 0.69752008 1.0502377e-38
0.52741808 0.031779747 0.69670916 9.4961499e-39
0.52391857 0.039168149 0.69574237 9.4961499e-39
0.52547473 0.037102271 0.69779813 9.1273674e-39
0.52405041 0.042598415 0.69619387 1.1708483e-38
0.5279181 0.046396822 0.69651639 1.1616284e-38
0.54256248 0.045830384 0.69513237 1.0227591e-38
0.53145456 0.050434668 0.69511092 1.1708483e-38
0.53515643 0.052975282 0.69688791 1.05103e-38
0.53997254 0.055186775 0.6989637 9.1273674e-39
0.54301876 0.058056146 0.69647557 9.4039542e-39
0.548581 0.061038908 0.69732177 9.0351717e-39
0.55152959 0.063431486 0.69533914 8.9429761e-39
0.55667174 0.065318249 0.69606918 1.097128e-38
0.56354874 0.067672595 0.69589514 1.2907385e-38
0.57009417 0.068742715 0.69829756 1.3552755e-38
0.57587302 0.068909958 0.69992954 1.6226429e-38
0.56993443 0.070454687 0.69475615 1.4105568e-38
0.57485867 0.070553154 0.69743884 1.511972e-38
0.64202034 0.11135282 0.69628841 1.2077988e-38
0.6464842 0.10926559 0.69689643 1.1156394e-38
0.63495004 0.11670545 0.69634503 1.1708845e-38
0.638937 0.11308084 0.69605678 1.2077628e-38
0.62852263 0.12411916 0.6970157 1.1708845e-38
0.6314854 0.12046047 0.69620496 1.1708845e-38
0.62498933 0.12966041 0.69635385 1.161593e-38
0.62160808 0.13674799 0.69607466 1.1708845e-38
0.6231057 0.13373299 0.69811243 1.1801041e-38
0.62031996 0.14344457 0.69752675 1.1801041e-38
0.61995417 0.15056913 0.69607806 1.1801041e-38
0.621907 0.15523639 0.69698131 1.1893236e-38
0.62637615 0.1573835 0.69693238 1.1801041e-38
0.63037676 0.15955724 0.69619614 1.1893236e-38
0.45495242 0.19909443 0.6943841 4.7909217e-39
0.45914307 0.2010309 0.69637692 6.7339005e-39
0.46389851 0.19954543 0.6964348 8.7603911e-39
0.45116132 0.20713712 0.69652796 6.0899787e-39
0.45533586 0.2034163 0.69635987 6.0896185e-39
0.44593742 0.21446177 0.69680405 6.0899787e-39
0.44847536 0.21098588 0.69745588 6.0896185e-39
0.44012555 0.2226119 0.69624621 6.0899801e-39
0.44258884 0.21907675 0.696495 6.0899801e-39
0.43672651 0.22771576 0.69679534 6.0896199e-39
0.43167049 0.23487101 0.69642198 6.0899787e-39
0.4340407 0.23139198 0.69671816 6.0896185e-39
0.48333892 0.23567991 0.6957289 4.8776929e-39
0.62062967 0.23715515 0.69668251 9.6904651e-39
0.62459505 0.23710078 0.69768471 1.0425193e-38
0.42951792 0.24129081 0.69651759 6.089257e-39
0.61199403 0.2422733 0.69706541 8.3064685e-39
0.61741388 0.23863113 0.69585007 8.3064685e-39
0.62657273 0.23844516 0.69918942 1.0237611e-38
0.43060496 0.24810219 0.69673032 6.0885311e-39
0.60579646 0.24822377 0.69658947 8.3064685e-39
0.43313631 0.25273603 0.69560385 5.8090464e-39
0.43662572 0.25607669 0.69770014 5.7164892e-39
0.59867865 0.25562015 0.69655186 8.3064685e-39
0.44731516 0.26137263 0.69864464 5.0693107e-39
0.44823226 0.26134431 0.69976449 4.8831132e-39
0.59171218 0.26283744 0.69666457 8.3064685e-39
0.59512818 0.25928867 0.69677281 8.3064685e-39
0.56671798 0.26728418 0.69472998 8.4869179e-39
0.58492416 0.26985011 0.6966303 8.3064685e-39
0.58844966 0.26618901 0.69598103 8.3064685e-39
0.60594666 0.27295914 0.69310087 8.3064671e-39
0.57821465 0.27689207 0.69659233 8.3064685e-39
0.58152366 0.27341732 0.69557208 8.3064685e-39
0.57146662 0.28408745 0.69660836 8.3064685e-39
0.57469922 0.28058887 0.69576186 8.3064685e-39
0.56458175 0.29167053 0.69639075 8.3064685e-39
0.56795043 0.28794408 0.69720048 8.3064685e-39
0.55857897 0.29868656 0.69665968 8.3064685e-39
0.56124288 0.29544777 0.69663328 8.3064685e-39
0.55618405 -0.29751971 0.70344782 2.8599577e-39
0.55817431 -0.29060709 0.70358777 9.7731179e-39
0.55954903 -0.28553337 0.70264959 1.1801041e-38
0.56053472 -0.28239933 0.70444322 1.1708846e-38
0.56155485 -0.27642706 0.70321167 1.1708846e-38
0.57263374 -0.27975401 0.70399982 2.7868057e-39
0.56277651 -0.26942059 0.7035892 1.1708846e-38
0.56391919 -0.26237163 0.70348454 1.1708846e-38
0.58180016 -0.26538804 0.70524132 7.5608054e-39
0.56502277 -0.25537866 0.70328826 1.1708846e-38
0.56601208 -0.24882452 0.70376676 1.1708846e-38
0.56669295 -0.24262254 0.70260757 1.1801041e-38
0.56791246 -0.24069706 0.70487624 1.1616289e-38
0.56789452 -0.23453361 0.70339102 1.1708846e-38
0.56889457 -0.2276108 0.70365196 1.1708845e-38
0.56992644 -0.22050108 0.70344865 6.4548291e-39
0.57098544 -0.21359284 0.70358175 3.5975143e-39
0.57201689 -0.20671688 0.70337015 2.8599577e-39
0.57293355 -0.19972737 0.70368093 2.8599577e-39
0.57340169 -0.19335009 0.7022509 2.8599577e-39
0.57444447 -0.19144018 0.70521998 2.8599577e-39
0.57542986 -0.18522392 0.70370531 2.8599577e-39
0.56855297 -0.17784904 0.70683575 2.7699186e-39
0.57700419 -0.17864968 0.7039361 2.8599577e-39
0.57848096 -0.17144054 0.70350623 2.8599577e-39
0.58013988 -0.16738781 0.70343095 2.8599577e-39
0.584203 -0.16482352 0.7035138 2.8599577e-39
0.58954859 -0.16212481 0.70580161 2.8599577e-39
0.58605111 -0.064226113 0.70254982 1.0232988e-38
0.59109509 -0.066438153 0.7030338 1.5119718e-38
0.59647751 -0.065087795 0.70384556 1.8530238e-38
0.57912058 -0.058062602 0.70219243 1.2999581e-38
0.5840652 -0.059626304 0.70503742 1.5212276e-38
0.59011984 -0.059370097 0.70676947 1.7793392e-38
0.59924644 -0.059300382 0.70623094 1.5395946e-38
0.60445333 -0.057112385 0.7065075 1.5212279e-38
0.61563629 -0.056022987 0.70034564 1.4843496e-38
0.57322562 -0.050943695 0.70066869 1.3828984e-38
0.57731992 -0.052642822 0.70312679 1.4843494e-38
0.58473772 -0.052517269 0.70561427 1.8346563e-38
0.59109771 -0.051851958 0.7062366 1.604204e-38
0.59880137 -0.052201398 0.70606583 1.4935692e-38
0.60596579 -0.052620705 0.70641494 1.5120083e-38
0.61284608 -0.051482856 0.70514059 1.5304475e-38
0.61871135 -0.051589947 0.70321792 1.539631e-38
0.62387276 -0.050655395 0.70219409 1.8346929e-38
0.57179809 -0.045564659 0.70191276 1.3921539e-38
0.57768667 -0.045474716 0.70391917 1.8991931e-38
0.58417642 -0.045681182 0.70494193 1.7701199e-38
0.59117925 -0.045199737 0.70536542 1.4935692e-38
0.5988999 -0.045760922 0.70595157 1.4935692e-38
0.60607994 -0.045555923 0.70645946 1.5027888e-38
0.61223125 -0.045430165 0.70647699 1.6687408e-38
0.61919188 -0.045243774 0.70618635 1.8438402e-38
0.62674987 -0.045477051 0.70432997 1.7977783e-38
0.63061512 -0.045182005 0.70334178 2.0282677e-38
0.56590337 -0.036297608 0.70097005 1.2815193e-38
0.56994182 -0.038711954 0.70267218 1.576509e-38
0.57724977 -0.038283877 0.70444387 1.8531315e-38
0.58388865 -0.038587533 0.70511961 1.5857648e-38
0.59117436 -0.038708959 0.70534289 1.4935692e-38
0.59890378 -0.038501155 0.70594704 1.4935692e-38
0.60601008 -0.038345285 0.70617622 1.5673257e-38
0.61263025 -0.038358826 0.70620179 1.9176688e-38
0.61893582 -0.039058782 0.70667505 1.9268524e-38
0.62860036 -0.038861353 0.70637256 1.9545109e-38
0.63204622 -0.038816441 0.70504522 1.9360718e-38
0.56439853 -0.031096585 0.70191973 1.1893622e-38
0.57058108 -0.031693235 0.70418113 1.8715713e-38
0.57739365 -0.031793479 0.70532382 1.6963996e-38
0.58448446 -0.031257298 0.70544952 1.539667e-38
0.591591 -0.031744491 0.70537317 1.4935692e-38
0.59798008 -0.031206913 0.70578718 1.5027888e-38
0.60538065 -0.031528935 0.70586073 1.7424973e-38
0.61257416 -0.031828936 0.7062645 1.9176328e-38
0.61863834 -0.031796288 0.70680553 1.8899741e-38
0.62718248 -0.02964328 0.7046684 1.6594127e-38
0.639579 -0.02969286 0.70391315 1.97295e-38
0.55857831 -0.022613205 0.70138729 3.6901065e-39
0.56334996 -0.024499772 0.70331597 7.3775548e-39
0.57042277 -0.024499699 0.70531434 1.475206e-38
0.57690936 -0.024505818 0.70590442 1.5212279e-38
0.58435786 -0.024231762 0.70579362 1.539667e-38
0.59180719 -0.02452595 0.70561045 1.5212279e-38
0.5980376 -0.024762431 0.70572084 1.5488866e-38
0.60554719 -0.024593389 0.70594209 1.8991935e-38
0.61124891 -0.025330231 0.70667207 1.8899741e-38
0.62093925 -0.024014138 0.70546132 1.7423888e-38
0.62533641 -0.024261706 0.7030282 1.7147298e-38
0.5568037 -0.016784646 0.70236909 3.8745034e-39
0.56355083 -0.017183937 0.70510525 4.4280541e-39
0.57045275 -0.017563375 0.70612741 5.0734319e-39
0.57770884 -0.017616441 0.70635104 9.9586484e-39
0.5852018 -0.01787602 0.70601916 1.5027893e-38
0.59152716 -0.017287444 0.70593798 1.5212279e-38
0.59847409 -0.017241577 0.70603484 1.8346569e-38
0.605313 -0.017615361 0.70634431 1.9361081e-38
0.60984439 -0.019482117 0.70689952 1.8715711e-38
0.61993229 -0.017450359 0.70413417 1.7424247e-38
0.55153155 -0.010095897 0.70125735 3.4131511e-39
0.55628979 -0.010734652 0.70424712 4.0592618e-39
0.56368923 -0.010654492 0.70638245 4.7968464e-39
0.57049197 -0.010285609 0.70645708 4.8890477e-39
0.57752967 -0.010474941 0.7065655 4.9812405e-39
0.58500361 -0.010687071 0.70625323 6.916962e-39
0.5912919 -0.010058184 0.706213 1.0788048e-38
0.59851247 -0.010245924 0.70639908 1.8807914e-38
0.60524684 -0.010416639 0.70674473 1.9637669e-38
0.61270005 -0.0096030012 0.7064299 1.7517554e-38
0.61923027 -0.01250731 0.70368809 1.714731e-38
0.55022615 -0.0034225031 0.70241171 3.6901079e-39
0.55579329 -0.0036715097 0.70609772 4.3354955e-39
0.56313848 -0.0036553219 0.70664877 4.8890477e-39
0.57047099 -0.0031975855 0.70648241 4.8890463e-39
0.57762468 -0.0033504479 0.70645201 4.8890477e-39
0.58492506 -0.003508189 0.7063458 4.8894064e-39
0.59123379 -0.0036438343 0.70628101 4.9812419e-39
0.59842789 -0.0037927772 0.70649678 7.3779387e-39
0.60571712 -0.0039438736 0.70669872 1.6687806e-38
0.61157167 -0.0038812601 0.70586497 1.6319024e-38
0.616678 -0.0066882055 0.70409471 7.2857501e-39
0.54473883 0.0042061051 0.70117426 1.0049705e-38
0.54943216 0.0033063209 0.70449209 6.3630301e-39
0.55642718 0.0033272554 0.70653796 4.7972094e-39
0.563393 0.0032158112 0.70653015 4.8894064e-39
0.57048941 0.0031012304 0.70646018 4.8890477e-39
0.57765186 0.0037783713 0.70641923 4.8894064e-39
0.58490115 0.0036667562 0.70637399 4.8894064e-39
0.59125388 0.0035678714 0.70625752 4.9812419e-39
0.59851736 0.00345876 0.70639348 4.8890435e-39
0.60550076 0.0029452012 0.70633334 4.9816034e-39
0.61085171 0.003236087 0.70412654 4.9816062e-39
0.54286468 0.010715048 0.70292199 1.2077629e-38
0.54969907 0.0099807801 0.70564115 8.5760965e-39
0.55629593 0.010601156 0.70612383 4.8894036e-39
0.56364894 0.010254553 0.70621556 4.889405e-39
0.57058805 0.010186351 0.70634055 4.889405e-39
0.57765114 0.010908668 0.70641994 4.889405e-39
0.58488733 0.010840886 0.70639056 4.9812419e-39
0.59121412 0.01078115 0.70630407 4.9812419e-39
0.59863299 0.010711743 0.7062602 4.8890463e-39
0.60496092 0.009431228 0.70572424 5.0738019e-39
0.53728575 0.017695909 0.70170498 1.0694693e-38
0.54242122 0.017379893 0.70450234 1.7609365e-38
0.5494526 0.017355511 0.70543152 1.604204e-38
0.55603898 0.017330645 0.7057938 1.1802169e-38
0.56381983 0.017300371 0.70600563 5.5344045e-39
0.57074052 0.017273283 0.70615554 4.8890449e-39
0.57769769 0.017246131 0.70636392 4.8890449e-39
0.58481532 0.017218079 0.7064755 4.9812419e-39
0.59115088 0.017192427 0.70637798 4.9812433e-39
0.59774804 0.016761767 0.70626098 4.8890477e-39
0.60492313 0.017931251 0.70146537 4.7968464e-39
0.53105211 0.026841959 0.70106405 9.4961499e-39
0.53508818 0.024298239 0.70253122 1.5581061e-38
0.54246199 0.024310317 0.70445061 1.6595213e-38
0.54946417 0.024322333 0.70541692 1.5027888e-38
0.55613637 0.024335295 0.70567262 1.5027888e-38
0.5639531 0.024350608 0.7058419 1.3921917e-38
0.5707857 0.024363644 0.70610058 9.1292591e-39
0.57762289 0.02437653 0.70645338 5.2578218e-39
0.58472764 0.02439045 0.70657921 4.9812419e-39
0.59108967 0.024403559 0.70644969 5.6262414e-39
0.59647453 0.023073927 0.70589513 7.1931859e-39
0.52977538 0.032529153 0.70208198 1.4658742e-38
0.53528184 0.031445734 0.70340347 1.7793757e-38
0.54281223 0.031071352 0.70455074 1.456691e-38
0.54951006 0.031290095 0.70535904 1.5120083e-38
0.55624604 0.031342603 0.70553589 1.5120083e-38
0.56339115 0.031217344 0.70567995 1.5027888e-38
0.57009768 0.031607222 0.70595491 1.68718e-38
0.5774886 0.031347279 0.7063691 1.6964385e-38
0.58452284 0.031745438 0.7064448 9.0370803e-39
0.59127951 0.031357288 0.70541102 1.2907799e-38
0.50653034 0.040063918 0.70483875 8.7243721e-39
0.52463764 0.041016877 0.70041919 8.9429761e-39
0.52844989 0.038756918 0.70283639 1.5672893e-38
0.53552896 0.038227528 0.70492816 1.6595213e-38
0.54299915 0.038171656 0.70499784 1.5027888e-38
0.54962951 0.038261332 0.70520836 1.5027888e-38
0.55624747 0.038349234 0.7055338 1.5027888e-38
0.56331551 0.038642175 0.70570195 1.5765453e-38
0.57006222 0.038371835 0.70594639 1.8899738e-38
0.57711971 0.038638245 0.70582801 1.9729129e-38
0.58405024 0.038457528 0.70550686 1.9084132e-38
0.59067929 0.038057044 0.70324546 1.8899382e-38
0.52931201 0.044406537 0.70216548 1.4382155e-38
0.53550673 0.046073835 0.70384657 1.5027886e-38
0.54311931 0.045718569 0.70464826 1.4843496e-38
0.54964918 0.045231 0.70518327 1.4843496e-38
0.55605316 0.045347791 0.7057758 1.5027888e-38
0.56383568 0.045499213 0.70598614 1.8254372e-38
0.57103318 0.045646463 0.70580143 2.0098277e-38
0.57777947 0.045795929 0.70503688 1.9913883e-38
0.58439904 0.045368649 0.70423204 1.9637306e-38
0.58970505 0.043680336 0.70192915 2.0559264e-38
0.53678787 0.051387034 0.70123446 1.2446409e-38
0.54272664 0.052678414 0.7028715 1.2538606e-38
0.5492515 0.052367125 0.70464814 1.4105931e-38
0.55594927 0.052346636 0.70590436 1.4843496e-38
0.56288248 0.051673882 0.70658398 1.926888e-38
0.57081133 0.052062411 0.70647925 2.0374506e-38
0.57724077 0.052420173 0.70549476 2.0467061e-38
0.58411276 0.051872946 0.70288354 2.0098645e-38
0.54454279 0.056823298 0.70053852 1.1985432e-38
0.5502075 0.058507323 0.70200533 1.1524454e-38
0.55608577 0.05968016 0.70463043 1.2630801e-38
0.56236643 0.060988776 0.70656329 1.6226431e-38
0.57094544 0.060585313 0.7068885 1.7977783e-38
0.57620132 0.059194554 0.70619333 2.0559623e-38
0.58195198 0.058687001 0.70250034 2.0651821e-38
0.55759925 0.063668042 0.70261031 1.1524454e-38
0.56353962 0.064996466 0.7036401 1.5027888e-38
0.57026631 0.065228559 0.70402557 1.6503018e-38
0.57539761 0.065909885 0.70346928 1.5949844e-38
0.64280379 0.11168025 0.70235509 1.1708846e-38
0.64700454 0.11023322 0.70330262 1.226274e-38
0.65321225 0.11057615 0.70474058 1.6779605e-38
0.63539881 0.1169377 0.70301551 1.1801041e-38
0.63901806 0.11446267 0.7039448 1.1801042e-38
0.62889481 0.12457546 0.7034778 1.1801041e-38
0.63190961 0.12062342 0.7037046 1.1801041e-38
0.6258685 0.12920927 0.70347512 1.1801041e-38
0.66428852 0.13174996 0.70323962 1.564337e-38
0.62193435 0.13756968 0.70289826 1.1801041e-38
0.62378299 0.13422491 0.7046653 1.1616289e-38
0.65125829 0.13394636 0.70398492 1.1708845e-38
0.62121385 0.14377226 0.70392519 1.2262019e-38
0.62100971 0.15007822 0.70292443 1.2630801e-38
0.62358183 0.15238176 0.70538139 1.3276171e-38
0.62624127 0.15574889 0.70360214 1.2999584e-38
0.63239127 0.15733494 0.70384866 1.5212279e-38
0.45899841 0.20187537 0.70293558 5.156449e-39
0.46575314 0.20158228 0.70363158 6.7255824e-39
0.4525733 0.20698905 0.70354337 4.5118027e-39
0.45655951 0.2043855 0.70575243 4.2326837e-39
0.46553677 0.20358595 0.70622849 6.0729809e-39
0.47241861 0.2049709 0.70480007 6.9985554e-39
0.47648239 0.20850915 0.70510066 8.0148765e-39
0.4468458 0.21507224 0.70309734 4.3284975e-39
0.4492107 0.21202797 0.70430976 4.2344927e-39
0.47734478 0.21135998 0.70634776 7.3669764e-39
0.44067076 0.22346096 0.70233876 4.4206931e-39
0.44373614 0.22020826 0.7039904 4.1430202e-39
0.42603463 0.22462669 0.70323133 4.509995e-39
0.43825951 0.22771604 0.70373583 4.2348557e-39
0.44166681 0.22482318 0.70627904 3.9564597e-39
0.43249723 0.23555066 0.70301056 4.328496e-39
0.43481949 0.23273902 0.704346 3.9579045e-39
0.58410335 0.23610924 0.70255679 8.7677984e-39
0.43125698 0.24136606 0.70382708 4.1412139e-39
0.60884273 0.24471557 0.7019012 8.3064685e-39
0.61203933 0.24146582 0.7039246 8.3064685e-39
0.61938375 0.23854037 0.70105821 1.1536503e-38
0.62613034 0.23974438 0.7009179 1.079327e-38
0.63067085 0.24055539 0.70081925 9.0351717e-39
0.43196273 0.24807674 0.70402914 3.8653473e-39
0.4343954 0.25127411 0.70642126 4.3245192e-39
0.60524505 0.24865276 0.70355731 8.3064685e-39
0.43786034 0.2552186 0.70341873 4.1426572e-39
0.44336963 0.25751615 0.70613468 4.2326837e-39
0.4572992 0.25635943 0.70607013 6.2570106e-39
0.5688498 0.25261426 0.70342886 7.5624995e-39
0.59872633 0.25535026 0.70338666 8.3064685e-39
0.44937915 0.26144284 0.70052433 4.7901945e-39
0.59183013 0.26252422 0.70358562 8.3064685e-39
0.59544373 0.26130509 0.70643258 8.5830554e-39
0.55896837 0.2708838 0.70007187 9.3141941e-39
0.58477736 0.26990253 0.70360065 8.3064685e-39
0.58821905 0.26629782 0.70367998 8.3064685e-39
0.57824111 0.27677077 0.70365947 8.3064685e-39
0.58157039 0.27329591 0.70172203 8.3064685e-39
0.5712716 0.28431129 0.70357352 8.3064685e-39
0.57463872 0.28064841 0.70327461 8.3064685e-39
0.56480688 0.29141346 0.70355392 8.9496715e-39
0.56795615 0.28791872 0.70413047 8.398304e-39
0.55834955 0.29919288 0.70331907 9.7743875e-39
0.56139457 0.29548782 0.70365292 9.5925158e-39
0.55264187 -0.29980972 0.71313918 2.778901e-39
0.55677468 -0.29781699 0.71045721 2.7806974e-39
0.55881393 -0.29077947 0.71062136 4.8096977e-39
0.55982292 -0.28652593 0.70846337 8.8587174e-39
0.56084037 -0.28334564 0.71087784 5.3646638e-39
0.54706359 -0.27944782 0.71281552 7.2957203e-39
0.56234008 -0.27640629 0.71071869 5.5486935e-39
0.56371886 -0.26925683 0.71025431 6.4681247e-39
0.56483072 -0.26272053 0.71057701 6.1004239e-39
0.56590229 -0.25531235 0.7103405 6.5599602e-39
0.56669801 -0.24990167 0.71044189 7.2035261e-39
0.5672217 -0.24680495 0.71111405 5.2728283e-39
0.56792569 -0.24123836 0.71062994 6.7439899e-39
0.56878597 -0.23472875 0.71047419 7.2957203e-39
0.5697751 -0.22728856 0.71037602 7.5712254e-39
0.57073379 -0.22064872 0.71074486 3.4235445e-39
0.57178199 -0.21310058 0.71024454 2.7756668e-39
0.5727815 -0.20669183 0.7108624 2.7771045e-39
0.57356536 -0.20003642 0.70974529 2.7720738e-39
0.57408822 -0.19684909 0.71067911 2.8660659e-39
0.57504928 -0.19254871 0.71074551 2.7756668e-39
0.5773921 -0.18539481 0.71023625 2.771355e-39
0.57947075 -0.17834352 0.71008509 2.861394e-39
0.58025801 -0.17225336 0.70820212 2.8599577e-39
0.58201629 -0.17116226 0.7116527 2.772434e-39
0.58444732 -0.16596308 0.71066463 2.8613968e-39
0.59136319 -0.16270253 0.71101063 3.2291157e-39
0.59665847 -0.16293117 0.71339774 3.5979067e-39
0.5914098 -0.059539888 0.70750409 1.7332417e-38
0.59758914 -0.058486767 0.70746166 1.5857287e-38
0.59199142 -0.055324376 0.70723236 1.5949844e-38
0.62216973 -0.037553847 0.70715141 1.9268517e-38
0.62561154 -0.038402293 0.7072162 2.000609e-38
0.619968 -0.031888165 0.70732176 1.9452914e-38
0.62557334 -0.03350579 0.70742112 1.9914256e-38
0.61411428 -0.02360649 0.70724833 1.9268884e-38
0.61724865 -0.025608813 0.70737422 1.9453278e-38
0.61201358 -0.016882934 0.70711923 1.9545469e-38
0.61606061 -0.018865179 0.70723593 1.9637665e-38
0.60758311 -0.010471826 0.70701802 1.9361082e-38
0.61133951 -0.012607387 0.70704651 1.9913893e-38
0.56425744 0.055036008 0.70718461 1.9453278e-38
0.56851715 0.055260222 0.70721763 2.0467065e-38
0.55992287 0.057100475 0.70711541 1.9544746e-38
0.56379747 0.058573343 0.70756435 1.7977788e-38
0.56903535 0.059158683 0.70752341 1.963694e-38
0.56984067 0.071509704 0.7097677 1.4198127e-38
0.65309179 0.094001509 0.70975214 8.2821293e-39
0.6483264 0.11173405 0.70747244 1.5949844e-38
0.65171236 0.11197024 0.70754749 1.5949844e-38
0.63573635 0.11832881 0.70949686 1.1524454e-38
0.64046752 0.11563449 0.71067441 1.2169822e-38
0.6479091 0.11477619 0.71156645 1.7609727e-38
0.65395206 0.11507115 0.70965844 2.0006452e-38
0.65899694 0.11758609 0.70722133 2.0559986e-38
0.62931651 0.12507875 0.70965225 1.1708845e-38
0.63216972 0.12215822 0.71103758 1.1340061e-38
0.62709165 0.12936683 0.71086645 1.1616649e-38
0.62252957 0.13865733 0.70736265 1.1801041e-38
0.62482929 0.13648599 0.71064472 1.1801041e-38
