# .PCD v0.7 - Point Cloud Data file format
VERSION 0.7
FIELDS x y z rgb
SIZE 4 4 4 4
TYPE F F F F
COUNT 1 1 1 1
WIDTH 1009
HEIGHT 1
VIEWPOINT 0 0 0 1 0 0 0
POINTS 1009
DATA ascii
0.46526644 -0.21349852 0.60999954 1.0879084e-38
0.47234401 -0.21352717 0.60999954 1.0879084e-38
0.47942528 -0.2135575 0.6099996 1.0879084e-38
0.48653471 -0.21339184 0.6099996 1.0879084e-38
0.49368903 -0.21342432 0.60999966 1.0879084e-38
0.50064856 -0.21366368 0.60999966 1.0879084e-38
0.50801653 -0.21349569 0.60999966 1.0879084e-38
0.51456761 -0.21349072 0.60999972 1.0879084e-38
0.52135241 -0.21359834 0.60999972 1.0879084e-38
0.52897698 -0.21342702 0.60999978 1.0879084e-38
0.53566825 -0.21368945 0.60999984 1.0879084e-38
0.54232079 -0.21354206 0.60999995 1.0879084e-38
0.54923868 -0.21326043 0.61000007 1.0879084e-38
0.55642784 -0.21364814 0.61000001 1.0879084e-38
0.56748605 -0.21298471 0.61000013 1.0879084e-38
0.75473863 -0.21368937 0.61000139 1.097128e-38
0.7601335 -0.21358852 0.61000144 1.097128e-38
0.76712227 -0.21317676 0.6100015 1.097128e-38
0.77353787 -0.21351446 0.6100015 1.097128e-38
0.78090876 -0.21340854 0.61000156 1.097128e-38
0.78742039 -0.21342178 0.61000156 1.097128e-38
0.79495651 -0.21364467 0.61000162 1.097128e-38
0.80159223 -0.21365909 0.61000168 1.097128e-38
0.80906618 -0.21342242 0.6100018 1.097128e-38
0.81486815 -0.2133162 0.61000174 1.097128e-38
0.8224529 -0.2137538 0.6100018 1.097128e-38
0.82956952 -0.21355693 0.61000186 1.097128e-38
0.83553022 -0.21344978 0.61000192 1.097128e-38
0.84304911 -0.21357223 0.61000198 1.097128e-38
0.85041893 -0.21321857 0.61000198 1.097128e-38
0.85676283 -0.21358703 0.61000204 1.097128e-38
0.86427134 -0.21348558 0.61005861 1.097128e-38
0.33293384 -0.20652761 0.60999864 1.0879084e-38
0.33981091 -0.20650893 0.60999864 1.0879084e-38
0.34672618 -0.20662861 0.6099987 1.0879084e-38
0.35373399 -0.20646942 0.6099987 1.0879084e-38
0.3607167 -0.20644653 0.6099987 1.0879084e-38
0.36803418 -0.20642735 0.60999876 1.0879084e-38
0.37447891 -0.2065054 0.60999876 1.0879084e-38
0.38111556 -0.20650291 0.60999876 1.0879084e-38
0.38871762 -0.20648372 0.60999876 1.0879084e-38
0.39541462 -0.20656367 0.60999888 1.0879084e-38
0.40231276 -0.20656155 0.60999888 1.0879084e-38
0.40930855 -0.20649664 0.609999 1.0879084e-38
0.41638303 -0.20649403 0.60999894 1.0879084e-38
0.4235588 -0.20642787 0.60999912 1.0879084e-38
0.43026638 -0.20659834 0.60999912 1.0879084e-38
0.43748814 -0.20637834 0.60999942 1.0879084e-38
0.44506243 -0.20652959 0.60999936 1.0879084e-38
0.45181766 -0.20651801 0.60999936 1.0879084e-38
0.45859793 -0.20631489 0.60999942 1.0879084e-38
0.46526703 -0.20650342 0.60999954 1.0879084e-38
0.47205251 -0.20649828 0.6099996 1.0879084e-38
0.47903278 -0.20648915 0.6099996 1.0879084e-38
0.48628336 -0.20647413 0.6099996 1.0879084e-38
0.49352896 -0.20646225 0.60999966 1.0879084e-38
0.50101346 -0.20664629 0.60999966 1.0879084e-38
0.50834364 -0.2066381 0.60999966 1.0879084e-38
0.51470143 -0.20645727 0.60999972 1.0879084e-38
0.52108651 -0.20647889 0.60999972 1.0879084e-38
0.5288642 -0.20646329 0.60999978 1.0879084e-38
0.53581744 -0.20680691 0.60999978 1.0879084e-38
0.54266685 -0.20649004 0.60999995 1.0879084e-38
0.54939109 -0.20630328 0.61000007 1.0879084e-38
0.55630994 -0.20652914 0.61000001 1.0879084e-38
0.56748605 -0.20622256 0.61000013 1.0879084e-38
0.73946047 -0.20402062 0.61000127 1.097128e-38
0.74539977 -0.20543288 0.61000133 1.097128e-38
0.75230426 -0.20625396 0.61000139 1.097128e-38
0.76040429 -0.20642619 0.61000144 1.097128e-38
0.76673222 -0.20640874 0.6100015 1.097128e-38
0.77403909 -0.20626841 0.61000156 1.097128e-38
0.78051132 -0.20657694 0.61000156 1.097128e-38
0.7879563 -0.20643611 0.61000162 1.097128e-38
0.79455143 -0.20674837 0.61000162 1.097128e-38
0.80213827 -0.20660706 0.61000162 1.097128e-38
0.80906624 -0.20637988 0.6100018 1.097128e-38
0.81486815 -0.20624661 0.61000174 1.097128e-38
0.82189196 -0.2066938 0.61000186 1.097128e-38
0.82956946 -0.20641881 0.61000192 1.097128e-38
0.83553022 -0.20628391 0.61000192 1.097128e-38
0.84332353 -0.20669189 0.61000204 1.097128e-38
0.85047638 -0.20637658 0.61019027 1.097128e-38
0.85698253 -0.20679876 0.6100021 1.097128e-38
0.86449128 -0.20641106 0.6100021 1.097128e-38
0.332986 -0.19949912 0.60999864 1.0879084e-38
0.33981082 -0.1995718 0.60999864 1.0879084e-38
0.34672624 -0.19964543 0.6099987 1.0879084e-38
0.35373402 -0.1994396 0.6099987 1.0879084e-38
0.36083606 -0.19951336 0.6099987 1.0879084e-38
0.36791322 -0.199444 0.60999876 1.0879084e-38
0.37459487 -0.19951254 0.60999876 1.0879084e-38
0.38136315 -0.19958185 0.60999876 1.0879084e-38
0.38859197 -0.19936548 0.60999876 1.0879084e-38
0.39553508 -0.19943488 0.60999882 1.0879084e-38
0.40257004 -0.19950499 0.60999894 1.0879084e-38
0.40955549 -0.19945765 0.609999 1.0879084e-38
0.41672155 -0.1994971 0.60999894 1.0879084e-38
0.42386377 -0.19948395 0.60999912 1.0879084e-38
0.43018126 -0.19943857 0.60999912 1.0879084e-38
0.43756029 -0.19939837 0.6099993 1.0879084e-38
0.44493136 -0.19946897 0.60999936 1.0879084e-38
0.45144331 -0.19961704 0.60999936 1.0879084e-38
0.45821917 -0.19937344 0.60999942 1.0879084e-38
0.46526638 -0.19950847 0.60999948 1.0879084e-38
0.47240025 -0.19964562 0.60999954 1.0879084e-38
0.47942516 -0.19939779 0.6099996 1.0879084e-38
0.48633644 -0.19954923 0.6099996 1.0879084e-38
0.49336982 -0.19950287 0.60999966 1.0879084e-38
0.5006066 -0.19945122 0.60999966 1.0879084e-38
0.50817961 -0.19959167 0.60999966 1.0879084e-38
0.51484567 -0.19969048 0.60999972 1.0879084e-38
0.52129692 -0.19955015 0.60999972 1.0879084e-38
0.52875179 -0.19950143 0.60999978 1.0879084e-38
0.53552967 -0.1994193 0.60999978 1.0879084e-38
0.54255116 -0.19944894 0.60999995 1.0879084e-38
0.54939109 -0.19963749 0.61000007 1.0879084e-38
0.5561924 -0.19941215 0.61000001 1.0879084e-38
0.56395739 -0.19986488 0.61084616 8.8507805e-39
0.56816703 -0.19901478 0.61000013 1.0879084e-38
0.71808624 -0.19735996 0.61000109 1.097128e-38
0.72449404 -0.19834954 0.61000115 1.097128e-38
0.73120004 -0.19912542 0.61000121 1.097128e-38
0.73906612 -0.19925605 0.61000121 1.097128e-38
0.74539971 -0.19965068 0.61000127 1.097128e-38
0.75232893 -0.19935526 0.61000139 1.097128e-38
0.75988746 -0.19965607 0.6100015 1.097128e-38
0.76712227 -0.19948255 0.6100015 1.097128e-38
0.77351314 -0.19943511 0.6100015 1.097128e-38
0.78090876 -0.19958583 0.61000156 1.097128e-38
0.78742045 -0.19953839 0.61000156 1.097128e-38
0.79475397 -0.19923447 0.61000162 1.097128e-38
0.80159223 -0.19964364 0.61000168 1.097128e-38
0.80906624 -0.19933732 0.6100018 1.097128e-38
0.81486815 -0.19917703 0.6100018 1.097128e-38
0.8224529 -0.19954397 0.6100018 1.097128e-38
0.82956952 -0.19928074 0.61000186 1.097128e-38
0.8357439 -0.19958708 0.61000198 1.097128e-38
0.84274709 -0.19953789 0.61000198 1.097128e-38
0.85085475 -0.19969626 0.61000198 1.097128e-38
0.85654312 -0.19961874 0.61000204 1.097128e-38
0.86480206 -0.19977926 0.6100021 1.097128e-38
0.33288181 -0.19246949 0.60999864 1.0879084e-38
0.33970532 -0.19249584 0.60999864 1.0879084e-38
0.34661928 -0.1925225 0.6099987 1.0879084e-38
0.35373402 -0.19240978 0.6099987 1.0879084e-38
0.36083606 -0.19243623 0.6099987 1.0879084e-38
0.36803418 -0.19246306 0.60999876 1.0879084e-38
0.3745949 -0.19234386 0.60999876 1.0879084e-38
0.38123959 -0.1925115 0.60999876 1.0879084e-38
0.38884294 -0.19239496 0.60999876 1.0879084e-38
0.39565539 -0.19230378 0.60999888 1.0879084e-38
0.4025059 -0.19244342 0.60999888 1.0879084e-38
0.40947336 -0.19242932 0.609999 1.0879084e-38
0.41651526 -0.19249354 0.60999894 1.0879084e-38
0.42364347 -0.19255859 0.60999912 1.0879084e-38
0.42995811 -0.1924753 0.60999912 1.0879084e-38
0.43727407 -0.19241704 0.60999936 1.0879084e-38
0.44479957 -0.19241086 0.60999936 1.0879084e-38
0.45176336 -0.19249949 0.60999936 1.0879084e-38
0.45859793 -0.19240475 0.60999948 1.0879084e-38
0.46526703 -0.19251338 0.60999948 1.0879084e-38
0.4720124 -0.19262388 0.6099996 1.0879084e-38
0.47903273 -0.19233413 0.6099996 1.0879084e-38
0.48633581 -0.19242807 0.6099996 1.0879084e-38
0.49373022 -0.19252366 0.60999966 1.0879084e-38
0.50097173 -0.19242997 0.60999966 1.0879084e-38
0.50801659 -0.19254798 0.60999966 1.0879084e-38
0.51456749 -0.19242959 0.60999972 1.0879084e-38
0.52150738 -0.19261773 0.60999972 1.0879084e-38
0.52909023 -0.19252247 0.60999978 1.0879084e-38
0.53566831 -0.19226313 0.60999984 1.0879084e-38
0.54243582 -0.19240975 0.60999995 1.0879084e-38
0.54954368 -0.19267695 0.61000007 1.0879084e-38
0.55636907 -0.19249438 0.61000001 1.0879084e-38
0.56326574 -0.19230825 0.61000007 1.0879084e-38
0.56884885 -0.19245757 0.61000013 1.0879084e-38
0.68444312 -0.189395 0.61000085 1.097128e-38
0.68932605 -0.19013932 0.61000097 1.097128e-38
0.69578904 -0.1913567 0.61000103 1.097128e-38
0.70293516 -0.19221385 0.61000103 1.097128e-38
0.71047002 -0.19242199 0.61000103 1.097128e-38
0.71834165 -0.19229206 0.61000109 1.097128e-38
0.72449416 -0.19265085 0.61000115 1.097128e-38
0.73122388 -0.19232668 0.61000121 1.097128e-38
0.73856425 -0.19258715 0.61000121 1.097128e-38
0.7455892 -0.19238171 0.61000127 1.097128e-38
0.7518177 -0.19262496 0.61000139 1.097128e-38
0.76037943 -0.1924724 0.6100015 1.097128e-38
0.7667321 -0.19271813 0.6100015 1.097128e-38
0.77403909 -0.19250971 0.61000156 1.097128e-38
0.78051132 -0.19275796 0.61000156 1.097128e-38
0.7879563 -0.19254778 0.61000156 1.097128e-38
0.79475397 -0.1922586 0.61000162 1.097128e-38
0.80213839 -0.19258653 0.61000162 1.097128e-38
0.80906624 -0.19229476 0.6100018 1.097128e-38
0.81507617 -0.19256921 0.61000174 1.097128e-38
0.82189178 -0.19248918 0.61000186 1.097128e-38
0.82978153 -0.19260891 0.61000192 1.097128e-38
0.83531654 -0.19250686 0.61000192 1.097128e-38
0.84335148 -0.192628 0.61000198 1.097128e-38
0.85041893 -0.19254647 0.61000198 1.097128e-38
0.85676283 -0.19283046 0.61000204 1.097128e-38
0.86420876 -0.19252868 0.6100021 1.097128e-38
0.33298606 -0.18544073 0.60999864 1.0879084e-38
0.33981088 -0.18542072 0.60999864 1.0879084e-38
0.34672627 -0.18540047 0.6099987 1.0879084e-38
0.35373405 -0.18537997 0.6099987 1.0879084e-38
0.36095497 -0.18549998 0.6099987 1.0879084e-38
0.36815479 -0.18547983 0.60999876 1.0879084e-38
0.37471065 -0.18534803 0.60999876 1.0879084e-38
0.38130152 -0.18544246 0.60999876 1.0879084e-38
0.38878044 -0.18542151 0.60999876 1.0879084e-38
0.39557531 -0.18536386 0.60999888 1.0879084e-38
0.40237468 -0.18553054 0.60999888 1.0879084e-38
0.40925837 -0.18559468 0.609999 1.0879084e-38
0.41630852 -0.18549386 0.60999894 1.0879084e-38
0.42355874 -0.18544292 0.60999912 1.0879084e-38
0.43026632 -0.18548836 0.60999912 1.0879084e-38
0.4377028 -0.18543689 0.60999912 1.0879084e-38
0.44511616 -0.18533202 0.60999936 1.0879084e-38
0.4516308 -0.18539923 0.60999936 1.0879084e-38
0.45821911 -0.18546782 0.60999948 1.0879084e-38
0.46526638 -0.18551841 0.60999948 1.0879084e-38
0.47240025 -0.18557012 0.60999954 1.0879084e-38
0.47938499 -0.18543676 0.6099996 1.0879084e-38
0.48617852 -0.18551239 0.6099996 1.0879084e-38
0.49332824 -0.18537687 0.60999966 1.0879084e-38
0.50080973 -0.18542843 0.60999966 1.0879084e-38
0.50838596 -0.18548115 0.60999966 1.0879084e-38
0.51470143 -0.18539385 0.60999972 1.0879084e-38
0.52124113 -0.18550108 0.60999972 1.0879084e-38
0.5289771 -0.18555944 0.60999972 1.0879084e-38
0.53566825 -0.18567042 0.60999984 1.0879084e-38
0.54232085 -0.18537249 0.6099999 1.0879084e-38
0.54939091 -0.18547186 0.61000007 1.0879084e-38
0.55654609 -0.18557364 0.61000001 1.0879084e-38
0.56342155 -0.18527055 0.61000013 1.0879084e-38
0.57007843 -0.18517314 0.61000007 1.0879084e-38
0.6546858 -0.1830523 0.61000067 1.0879084e-38
0.66218144 -0.1834579 0.61000073 1.097128e-38
0.66880864 -0.18466477 0.61000079 1.097128e-38
0.67598158 -0.1844352 0.61000085 1.097128e-38
0.68347245 -0.18518756 0.61000097 1.097128e-38
0.68932611 -0.18550746 0.61000097 1.097128e-38
0.69548053 -0.18549347 0.61000103 1.097128e-38
0.70293522 -0.18566583 0.61000103 1.097128e-38
0.71069944 -0.18518806 0.61000103 1.097128e-38
0.71785408 -0.18572144 0.61000109 1.097128e-38
0.72449416 -0.18505257 0.61000115 1.097128e-38
0.73072755 -0.18569647 0.61000115 1.097128e-38
0.73904192 -0.18550591 0.61000115 1.097128e-38
0.74521035 -0.18571828 0.61000127 1.097128e-38
0.75230426 -0.1854786 0.61000139 1.097128e-38
0.75986326 -0.18570718 0.61000144 1.097128e-38
0.76692718 -0.18534204 0.6100015 1.097128e-38
0.77351314 -0.18568133 0.6100015 1.097128e-38
0.78071004 -0.18531269 0.61000156 1.097128e-38
0.78742039 -0.18565503 0.61000162 1.097128e-38
0.79475397 -0.18528272 0.61000162 1.097128e-38
0.80159235 -0.18562821 0.61000168 1.097128e-38
0.80906624 -0.18525222 0.6100018 1.097128e-38
0.81466013 -0.18558602 0.61000174 1.097128e-38
0.8224799 -0.18566985 0.61000192 1.097128e-38
0.82935745 -0.18555805 0.61000192 1.097128e-38
0.83553022 -0.18581001 0.61000192 1.097128e-38
0.84277421 -0.1854793 0.61000198 1.097128e-38
0.85063678 -0.18578385 0.61000204 1.097128e-38
0.85676283 -0.18556565 0.61000204 1.097128e-38
0.86449128 -0.1855516 0.6100021 1.097128e-38
0.332986 -0.17854899 0.60999864 1.0879084e-38
0.33981088 -0.17848358 0.60999864 1.0879084e-38
0.34672627 -0.17841728 0.60999864 1.0879084e-38
0.35373399 -0.17835012 0.6099987 1.0879084e-38
0.36083606 -0.17856435 0.6099987 1.0879084e-38
0.36803412 -0.17849724 0.60999876 1.0879084e-38
0.37459487 -0.17836416 0.60999876 1.0879084e-38
0.38123974 -0.17851801 0.60999876 1.0879084e-38
0.3887178 -0.17844932 0.60999876 1.0879084e-38
0.39536563 -0.17861597 0.60999882 1.0879084e-38
0.40231267 -0.17861934 0.60999876 1.0879084e-38
0.40943211 -0.17855594 0.609999 1.0879084e-38
0.41664699 -0.17849149 0.60999894 1.0879084e-38
0.42386374 -0.17849328 0.60999912 1.0879084e-38
0.43013865 -0.17852114 0.60999912 1.0879084e-38
0.43741742 -0.17845725 0.6099993 1.0879084e-38
0.44474608 -0.17847793 0.60999936 1.0879084e-38
0.45163018 -0.17848594 0.60999942 1.0879084e-38
0.45859799 -0.1784946 0.60999942 1.0879084e-38
0.46526697 -0.1785233 0.60999954 1.0879084e-38
0.47201246 -0.17855301 0.60999954 1.0879084e-38
0.47922865 -0.17856169 0.6099996 1.0879084e-38
0.48653474 -0.17857097 0.6099996 1.0879084e-38
0.49368909 -0.17839393 0.60999966 1.0879084e-38
0.50064862 -0.17842947 0.60999966 1.0879084e-38
0.50812519 -0.17844231 0.60999972 1.0879084e-38
0.51484561 -0.17862454 0.60999972 1.0879084e-38
0.52113003 -0.17858422 0.60999972 1.0879084e-38
0.52870774 -0.1784018 0.60999972 1.0879084e-38
0.53581744 -0.17878447 0.60999978 1.0879084e-38
0.54249364 -0.17852904 0.60999995 1.0879084e-38
0.54923874 -0.17826931 0.61000007 1.0879084e-38
0.55642778 -0.17845599 0.61000001 1.0879084e-38
0.56342155 -0.17853005 0.61000007 1.0879084e-38
0.57055724 -0.17838855 0.61000013 1.0879084e-38
0.57611215 -0.17832729 0.61000013 1.0879084e-38
0.61620265 -0.17548192 0.61000043 1.0879084e-38
0.62953228 -0.17570519 0.61000049 1.0879084e-38
0.63403815 -0.17637406 0.61000055 1.0879084e-38
0.64113569 -0.17720446 0.61000061 1.0879084e-38
0.6479634 -0.17808107 0.61000067 1.0879084e-38
0.6546858 -0.17853571 0.61000067 1.0879084e-38
0.66171098 -0.17836215 0.61000067 1.0879084e-38
0.66880912 -0.17879736 0.61000079 1.097128e-38
0.67619991 -0.17829424 0.61000079 1.097128e-38
0.68300855 -0.17878051 0.61000085 1.097128e-38
0.68932605 -0.17809649 0.61000097 1.097128e-38
0.69525534 -0.17869478 0.61000103 1.097128e-38
0.70293516 -0.17818236 0.61000103 1.097128e-38
0.71021765 -0.178655 0.61000109 1.097128e-38
0.71808618 -0.17844963 0.61000109 1.097128e-38
0.72449404 -0.17840411 0.61000115 1.097128e-38
0.73096395 -0.17835872 0.61000115 1.097128e-38
0.73880351 -0.17849404 0.61000115 1.097128e-38
0.74539977 -0.17844927 0.61000133 1.097128e-38
0.75179374 -0.17875317 0.61000139 1.097128e-38
0.76013356 -0.1785423 0.61000144 1.097128e-38
0.76692718 -0.17849582 0.6100015 1.097128e-38
0.77378863 -0.17844956 0.6100015 1.097128e-38
0.78071004 -0.17840225 0.6100015 1.097128e-38
0.78770113 -0.17835508 0.61000156 1.097128e-38
0.79475397 -0.17830686 0.61000162 1.097128e-38
0.80213833 -0.17856598 0.61000162 1.097128e-38
0.80906624 -0.17820966 0.6100018 1.097128e-38
0.81507617 -0.1784281 0.61000186 1.097128e-38
0.82191825 -0.17862019 0.6100018 1.097128e-38
0.82956952 -0.17888619 0.61000198 1.097128e-38
0.83553022 -0.17864417 0.61000192 1.097128e-38
0.84304905 -0.17859644 0.61000198 1.097128e-38
0.85063684 -0.17854759 0.61000204 1.097128e-38
0.85676283 -0.17830086 0.61000204 1.097128e-38
0.86477351 -0.17857072 0.6100021 1.097128e-38
0.33309045 -0.17151736 0.60999864 1.0879084e-38
0.33981088 -0.17154644 0.60999864 1.0879084e-38
0.34672624 -0.17143412 0.60999864 1.0879084e-38
0.35385141 -0.17145862 0.6099987 1.0879084e-38
0.36083594 -0.17148726 0.6099987 1.0879084e-38
0.36809459 -0.17151357 0.60999876 1.0879084e-38
0.37463358 -0.17137206 0.60999876 1.0879084e-38
0.38117775 -0.17159478 0.60999876 1.0879084e-38
0.38865495 -0.17147832 0.60999876 1.0879084e-38
0.39553508 -0.17166416 0.60999888 1.0879084e-38
0.40257004 -0.17155634 0.60999888 1.0879084e-38
0.40955546 -0.17133226 0.609999 1.0879084e-38
0.41658431 -0.17149009 0.60999894 1.0879084e-38
0.42364347 -0.1715721 0.609999 1.0879084e-38
0.43001014 -0.17155643 0.60999912 1.0879084e-38
0.43748811 -0.17147656 0.6099993 1.0879084e-38
0.44506243 -0.17139588 0.60999936 1.0879084e-38
0.4516308 -0.17157252 0.60999936 1.0879084e-38
0.45821926 -0.17156221 0.60999942 1.0879084e-38
0.46526638 -0.17152834 0.60999948 1.0879084e-38
0.47240031 -0.17149459 0.60999954 1.0879084e-38
0.47907335 -0.17168915 0.6099996 1.0879084e-38
0.48613751 -0.17147182 0.6099996 1.0879084e-38
0.49352896 -0.17143659 0.60999966 1.0879084e-38
0.50097179 -0.1716042 0.60999966 1.0879084e-38
0.50801659 -0.17160022 0.60999966 1.0879084e-38
0.51456749 -0.17136846 0.60999972 1.0879084e-38
0.52146429 -0.17164274 0.60999972 1.0879084e-38
0.52892083 -0.171425 0.60999978 1.0879084e-38
0.53552973 -0.17140342 0.60999978 1.0879084e-38
0.54266691 -0.17168266 0.60999995 1.0879084e-38
0.54939109 -0.17130791 0.61000007 1.0879084e-38
0.55630994 -0.17134033 0.61000001 1.0879084e-38
0.56342155 -0.17178953 0.61000013 1.0879084e-38
0.57037669 -0.17140861 0.61000013 1.0879084e-38
0.5775972 -0.17126067 0.61000013 1.0879084e-38
0.58192742 -0.16863863 0.61000019 1.0879084e-38
0.60584021 -0.16914104 0.61000037 1.0879084e-38
0.61230642 -0.17081444 0.61000037 1.0879084e-38
0.61951458 -0.17157844 0.61000055 1.0879084e-38
0.62749773 -0.17121808 0.61000055 1.0879084e-38
0.63403815 -0.1719262 0.61000055 1.0879084e-38
0.64085048 -0.17112656 0.61000061 1.0879084e-38
0.64752299 -0.17184044 0.61000061 1.0879084e-38
0.6546858 -0.17130919 0.61000067 1.0879084e-38
0.66171128 -0.17140085 0.61000067 1.0879084e-38
0.66880918 -0.17149566 0.61000079 1.0879084e-38
0.67598182 -0.1715892 0.61000079 1.097128e-38
0.68322951 -0.17168601 0.61000079 1.097128e-38
0.68950111 -0.17110641 0.61000097 1.097128e-38
0.69548017 -0.17153758 0.61000103 1.097128e-38
0.7031852 -0.17129394 0.61000103 1.097128e-38
0.71047002 -0.17173214 0.61000109 1.097128e-38
0.71831805 -0.17117439 0.61000109 1.097128e-38
0.7244941 -0.17175563 0.61000115 1.097128e-38
0.73122394 -0.17133293 0.61000121 1.097128e-38
0.73856425 -0.17148589 0.61000121 1.097128e-38
0.74558914 -0.17117755 0.61000127 1.097128e-38
0.75206113 -0.17162655 0.61000139 1.097128e-38
0.76040435 -0.17137347 0.61000144 1.097128e-38
0.76692712 -0.17164963 0.6100015 1.097128e-38
0.77378869 -0.17157137 0.61000156 1.097128e-38
0.78071004 -0.1714918 0.61000156 1.097128e-38
0.78770119 -0.17141208 0.61000156 1.097128e-38
0.79475397 -0.171331 0.61000162 1.097128e-38
0.80159235 -0.17161275 0.61000168 1.097128e-38
0.80927271 -0.17162426 0.61000174 1.097128e-38
0.81466013 -0.1714488 0.61000174 1.097128e-38
0.8224799 -0.17145973 0.61000192 1.097128e-38
0.82956946 -0.17174812 0.61000192 1.097128e-38
0.83553022 -0.17147829 0.61000186 1.097128e-38
0.84332353 -0.17170991 0.61000198 1.097128e-38
0.85063678 -0.17131133 0.61000198 1.097128e-38
0.85698241 -0.17150761 0.61000204 1.097128e-38
0.86418092 -0.17132813 0.6100021 1.097128e-38
0.33298603 -0.16448918 0.60999864 1.0879084e-38
0.33981088 -0.16460928 0.60999864 1.0879084e-38
0.34672618 -0.16445091 0.60999864 1.0879084e-38
0.35373402 -0.1645709 0.6099987 1.0879084e-38
0.360836 -0.16441017 0.6099987 1.0879084e-38
0.36803418 -0.16453184 0.6099987 1.0879084e-38
0.37455639 -0.16456704 0.60999876 1.0879084e-38
0.38111559 -0.16467278 0.60999876 1.0879084e-38
0.38859197 -0.16450851 0.60999876 1.0879084e-38
0.39553511 -0.16435607 0.60999882 1.0879084e-38
0.40250599 -0.16449638 0.60999876 1.0879084e-38
0.40943232 -0.16449398 0.609999 1.0879084e-38
0.41630849 -0.16464405 0.60999894 1.0879084e-38
0.4235588 -0.16445799 0.609999 1.0879084e-38
0.43026629 -0.1643784 0.60999912 1.0879084e-38
0.43756029 -0.16449438 0.60999918 1.0879084e-38
0.4447844 -0.16454041 0.6099993 1.0879084e-38
0.45149738 -0.1644765 0.60999936 1.0879084e-38
0.45859802 -0.16458444 0.60999942 1.0879084e-38
0.46526697 -0.16453321 0.60999942 1.0879084e-38
0.4720124 -0.1644821 0.60999954 1.0879084e-38
0.4793683 -0.16459236 0.6099996 1.0879084e-38
0.486494 -0.1645267 0.6099996 1.0879084e-38
0.49336979 -0.16448183 0.60999966 1.0879084e-38
0.50080967 -0.16460542 0.60999966 1.0879084e-38
0.5083859 -0.164527 0.60999972 1.0879084e-38
0.51470143 -0.16433042 0.60999972 1.0879084e-38
0.52129674 -0.16452479 0.60999972 1.0879084e-38
0.52909023 -0.16465233 0.60999972 1.0879084e-38
0.53566819 -0.1642441 0.60999984 1.0879084e-38
0.5425511 -0.16464479 0.60999995 1.0879084e-38
0.54939115 -0.1646421 0.61000007 1.0879084e-38
0.5561924 -0.16422658 0.61000001 1.0879084e-38
0.56357753 -0.16474751 0.61000013 1.0879084e-38
0.5705573 -0.16440889 0.61000007 1.0879084e-38
0.57777023 -0.16432811 0.61000019 1.0879084e-38
0.59221321 -0.16308045 0.61000019 1.0879084e-38
0.59923136 -0.16427606 0.61000037 1.0879084e-38
0.60529906 -0.16427402 0.61000031 1.0879084e-38
0.61182094 -0.16461889 0.61000043 1.0879084e-38
0.61951452 -0.16453922 0.61000055 1.0879084e-38
0.62729454 -0.16445601 0.61000055 1.0879084e-38
0.63403815 -0.16480963 0.61000061 1.0879084e-38
0.64105791 -0.16424586 0.61000061 1.0879084e-38
0.64773268 -0.16492662 0.61000061 1.0879084e-38
0.65471739 -0.16399333 0.61038297 1.0879084e-38
0.66149688 -0.16476859 0.61000067 1.0879084e-38
0.66880918 -0.16419393 0.61000079 1.0879084e-38
0.67576295 -0.16488756 0.61000079 1.0879084e-38
0.68322945 -0.16430752 0.61000085 1.0879084e-38
0.68915111 -0.16470636 0.61000097 1.097128e-38
0.69570476 -0.16437703 0.61000103 1.097128e-38
0.70270801 -0.16480049 0.61000103 1.097128e-38
0.71047002 -0.16420858 0.61000103 1.097128e-38
0.71783113 -0.16461095 0.61000109 1.097128e-38
0.7244941 -0.16415736 0.61000109 1.097128e-38
0.73072755 -0.16470997 0.61000115 1.097128e-38
0.73904192 -0.16439764 0.61000121 1.097128e-38
0.74521035 -0.16451967 0.61000127 1.097128e-38
0.75232887 -0.16449603 0.61000139 1.097128e-38
0.75988752 -0.16461577 0.61000144 1.097128e-38
0.76712227 -0.16426884 0.6100015 1.097128e-38
0.77378863 -0.16469321 0.6100015 1.097128e-38
0.78071004 -0.16458139 0.61000156 1.097128e-38
0.78770113 -0.16446908 0.61000156 1.097128e-38
0.79475397 -0.16435514 0.61000162 1.097128e-38
0.80213851 -0.16454543 0.61000162 1.097128e-38
0.80885983 -0.16467349 0.61000174 1.097128e-38
0.81486815 -0.16483903 0.6100018 1.097128e-38
0.82191825 -0.16441531 0.61000192 1.097128e-38
0.82956952 -0.16461001 0.61000192 1.097128e-38
0.83553022 -0.16431244 0.61000192 1.097128e-38
0.84274709 -0.16456893 0.61000198 1.097128e-38
0.85085475 -0.16454379 0.61000204 1.097128e-38
0.85654312 -0.16433756 0.61000204 1.097128e-38
0.86449128 -0.16469213 0.6100021 1.097128e-38
0.33298603 -0.15759744 0.60999864 1.0879084e-38
0.33981088 -0.15767214 0.60999864 1.0879084e-38
0.34672624 -0.15746774 0.60999864 1.0879084e-38
0.35373399 -0.15754107 0.6099987 1.0879084e-38
0.36089572 -0.15747266 0.6099987 1.0879084e-38
0.36803433 -0.15754928 0.6099987 1.0879084e-38
0.37447894 -0.15776354 0.60999876 1.0879084e-38
0.38123953 -0.15760174 0.60999876 1.0879084e-38
0.38884303 -0.15752999 0.60999876 1.0879084e-38
0.39565539 -0.15722114 0.60999888 1.0879084e-38
0.40251005 -0.15732573 0.61007917 1.0879084e-38
0.40930858 -0.15765817 0.609999 1.0879084e-38
0.4165152 -0.15749045 0.60999894 1.0879084e-38
0.423812 -0.15731925 0.609999 1.0879084e-38
0.43013868 -0.15741356 0.60999912 1.0879084e-38
0.43727407 -0.15752184 0.60999918 1.0879084e-38
0.44493118 -0.15746693 0.60999936 1.0879084e-38
0.45181766 -0.15734856 0.60999936 1.0879084e-38
0.45821926 -0.1576566 0.60999948 1.0879084e-38
0.46513042 -0.15735415 0.60999948 1.0879084e-38
0.47240031 -0.15741903 0.60999954 1.0879084e-38
0.47907329 -0.15753369 0.6099996 1.0879084e-38
0.48619482 -0.1574256 0.6099996 1.0879084e-38
0.49373034 -0.1574921 0.60999966 1.0879084e-38
0.50064862 -0.15760925 0.60999966 1.0879084e-38
0.50797391 -0.15730219 0.60999972 1.0879084e-38
0.51484567 -0.15755859 0.60999972 1.0879084e-38
0.52113008 -0.15740955 0.60999972 1.0879084e-38
0.52892047 -0.15749092 0.60999978 1.0879084e-38
0.53566825 -0.15765139 0.60999984 1.0879084e-38
0.54227591 -0.15741289 0.6099999 1.0879084e-38
0.54954368 -0.15767726 0.61000007 1.0879084e-38
0.55636901 -0.15730387 0.61000001 1.0879084e-38
0.56342149 -0.15746512 0.61000007 1.0879084e-38
0.57055724 -0.15763038 0.61000013 1.0879084e-38
0.57761085 -0.15724897 0.61000013 1.0879084e-38
0.58401954 -0.15781763 0.61000019 1.0879084e-38
0.59120369 -0.15735243 0.61000025 1.0879084e-38
0.59884173 -0.15757893 0.61000025 1.0879084e-38
0.60529906 -0.1573105 0.61000043 1.0879084e-38
0.61182094 -0.15762065 0.61000043 1.0879084e-38
0.61951447 -0.15750003 0.61000055 1.0879084e-38
0.62729454 -0.15737538 0.61000055 1.0879084e-38
0.63403815 -0.15769309 0.61000055 1.0879084e-38
0.64085048 -0.15741594 0.61000061 1.0879084e-38
0.64773273 -0.15773714 0.61000061 1.0879084e-38
0.65489751 -0.15713003 0.61000067 1.0879084e-38
0.66171098 -0.15778209 0.61000067 1.0879084e-38
0.66902524 -0.15716888 0.61000079 1.0879084e-38
0.67598152 -0.15782797 0.61000079 1.0879084e-38
0.68345016 -0.15720859 0.61000079 1.0879084e-38
0.68932611 -0.15771629 0.61000097 1.0879084e-38
0.69548041 -0.15757936 0.61000103 1.0879084e-38
0.70293522 -0.15760289 0.61000103 1.0879084e-38
0.71072274 -0.15728071 0.61000103 1.097128e-38
0.7180863 -0.15764825 0.61000109 1.097128e-38
0.72449404 -0.15750889 0.61000115 1.097128e-38
0.73096395 -0.15736876 0.61000115 1.097128e-38
0.73854065 -0.15774085 0.61000121 1.097128e-38
0.74539971 -0.15724795 0.61000127 1.097128e-38
0.7518177 -0.15777802 0.61000139 1.097128e-38
0.76037943 -0.15742028 0.61000144 1.097128e-38
0.76673216 -0.15751378 0.6100015 1.097128e-38
0.77406442 -0.15745486 0.6100015 1.097128e-38
0.78071004 -0.15767099 0.61000156 1.097128e-38
0.78770113 -0.15752608 0.61000156 1.097128e-38
0.79475397 -0.1573793 0.61000162 1.097128e-38
0.80159235 -0.15759729 0.61000168 1.097128e-38
0.80927265 -0.15753722 0.61000174 1.097128e-38
0.81486815 -0.15776946 0.6100018 1.097128e-38
0.82218564 -0.1576217 0.6100018 1.097128e-38
0.82956946 -0.15747193 0.61000192 1.097128e-38
0.83553022 -0.15714656 0.61000198 1.097128e-38
0.84335136 -0.15764537 0.61000198 1.097128e-38
0.85041893 -0.15740387 0.61000204 1.097128e-38
0.85676283 -0.15754431 0.61000204 1.097128e-38
0.86477351 -0.15770751 0.6100021 1.097128e-38
0.33303812 -0.15056583 0.60999864 1.0879084e-38
0.33991674 -0.15059203 0.60999864 1.0879084e-38
0.34672624 -0.15048458 0.60999864 1.0879084e-38
0.35373399 -0.15051123 0.6099987 1.0879084e-38
0.360836 -0.15053865 0.6099987 1.0879084e-38
0.36803412 -0.15056682 0.60999876 1.0879084e-38
0.37459493 -0.15076545 0.60999876 1.0879084e-38
0.38123959 -0.15038884 0.60999876 1.0879084e-38
0.38878047 -0.15055856 0.60999876 1.0879084e-38
0.39553535 -0.15046993 0.60999888 1.0879084e-38
0.40224001 -0.15053244 0.60999888 1.0879084e-38
0.40943211 -0.15043369 0.609999 1.0879084e-38
0.41672158 -0.15033297 0.60999894 1.0879084e-38
0.42368582 -0.1503949 0.609999 1.0879084e-38
0.43001014 -0.15045126 0.60999912 1.0879084e-38
0.43770283 -0.15052852 0.6099993 1.0879084e-38
0.44507822 -0.15039074 0.6099993 1.0879084e-38
0.45144334 -0.15046352 0.60999936 1.0879084e-38
0.45854297 -0.15048553 0.60999942 1.0879084e-38
0.46541905 -0.15033749 0.60999954 1.0879084e-38
0.47201246 -0.1504112 0.6099996 1.0879084e-38
0.47942516 -0.15062545 0.6099996 1.0879084e-38
0.48633608 -0.15049262 0.6099996 1.0879084e-38
0.49332821 -0.15035705 0.60999966 1.0879084e-38
0.50101346 -0.15057486 0.60999966 1.0879084e-38
0.50817996 -0.15043929 0.60999972 1.0879084e-38
0.51456749 -0.15030734 0.60999972 1.0879084e-38
0.52129704 -0.15067878 0.60999972 1.0879084e-38
0.52875179 -0.15033233 0.60999978 1.0879084e-38
0.5358175 -0.15076208 0.60999978 1.0879084e-38
0.54249376 -0.15035553 0.60999984 1.0879084e-38
0.54939091 -0.15047647 0.61000007 1.0879084e-38
0.55636907 -0.15060094 0.61000001 1.0879084e-38
0.56326568 -0.15018527 0.61000013 1.0879084e-38
0.57073832 -0.15062664 0.61000013 1.0879084e-38
0.57777023 -0.15012713 0.61000013 1.0879084e-38
0.58401954 -0.15096743 0.61000019 1.0879084e-38
0.59139025 -0.15023617 0.61000025 1.0879084e-38
0.59884161 -0.1506498 0.61000025 1.0879084e-38
0.60529906 -0.15034701 0.61000037 1.0879084e-38
0.61182094 -0.15062238 0.61000043 1.0879084e-38
0.61951458 -0.15046079 0.61000055 1.0879084e-38
0.62729454 -0.15029474 0.61000055 1.0879084e-38
0.63403815 -0.15057653 0.61000055 1.0879084e-38
0.64085072 -0.15056108 0.61000061 1.0879084e-38
0.64773273 -0.15054764 0.61000061 1.0879084e-38
0.65468603 -0.15053187 0.61000067 1.0879084e-38
0.66171104 -0.15051818 0.61000067 1.0879084e-38
0.66880947 -0.15050207 0.61000073 1.0879084e-38
0.67598152 -0.15048806 0.61000079 1.0879084e-38
0.68322968 -0.15047164 0.61000085 1.0879084e-38
0.68932605 -0.1503053 0.61000097 1.0879084e-38
0.6952554 -0.15078522 0.61000103 1.0879084e-38
0.70293522 -0.15011944 0.61000103 1.0879084e-38
0.71024042 -0.15075722 0.61000109 1.0879084e-38
0.71831805 -0.15036961 0.61000109 1.0879084e-38
0.72449416 -0.15086041 0.61000115 1.0879084e-38
0.73122394 -0.15033916 0.61000121 1.0879084e-38
0.73880321 -0.15067536 0.61000121 1.0879084e-38
0.74539977 -0.15050204 0.61000133 1.0879084e-38
0.75206113 -0.15032762 0.61000139 1.0879084e-38
0.75986326 -0.15066741 0.61000144 1.0879084e-38
0.76692724 -0.15013301 0.6100015 1.0879084e-38
0.77353787 -0.15063901 0.61000156 1.0879084e-38
0.78071004 -0.15076055 0.61000156 1.097128e-38
0.78770107 -0.15058307 0.61000156 1.097128e-38
0.79475397 -0.15040343 0.61000162 1.097128e-38
0.80213833 -0.1505249 0.61000162 1.097128e-38
0.80885983 -0.1505903 0.61000174 1.097128e-38
0.81486815 -0.15069987 0.6100018 1.097128e-38
0.8221857 -0.15051802 0.61000186 1.097128e-38
0.82956952 -0.15033384 0.61000186 1.097128e-38
0.8357439 -0.15044291 0.61000198 1.097128e-38
0.84277421 -0.15050972 0.61000198 1.097128e-38
0.85063678 -0.15063633 0.61000198 1.097128e-38
0.85698241 -0.15074812 0.61000204 1.097128e-38
0.86418092 -0.1504728 0.6100021 1.097128e-38
0.33298606 -0.14353798 0.60999864 1.0786889e-38
0.33981094 -0.14351963 0.60999864 1.0786889e-38
0.34672627 -0.1435014 0.6099987 1.0879084e-38
0.35373399 -0.1434814 0.6099987 1.0879084e-38
0.360836 -0.14346154 0.6099987 1.0879084e-38
0.36797383 -0.14358701 0.6099987 1.0879084e-38
0.3745949 -0.14359677 0.60999876 1.0879084e-38
0.38136318 -0.14331464 0.60999876 1.0879084e-38
0.38871786 -0.14358832 0.60999876 1.0879084e-38
0.39541459 -0.14372107 0.60999888 1.0879084e-38
0.40244147 -0.14346622 0.60999888 1.0879084e-38
0.40960586 -0.14338736 0.609999 1.0879084e-38
0.41633549 -0.14345084 0.61003822 1.0879084e-38
0.4235588 -0.14347303 0.60999912 1.0879084e-38
0.43031865 -0.14345224 0.60999912 1.0879084e-38
0.43741745 -0.14355764 0.60999924 1.0879084e-38
0.44479957 -0.14354038 0.60999936 1.0879084e-38
0.45181763 -0.14351963 0.60999936 1.0879084e-38
0.45825836 -0.14355467 0.60999948 1.0879084e-38
0.46513042 -0.14336574 0.60999948 1.0879084e-38
0.47236049 -0.14354241 0.60999954 1.0879084e-38
0.47903278 -0.14357799 0.6099996 1.0879084e-38
0.48647711 -0.14355719 0.6099996 1.0879084e-38
0.49352929 -0.14357606 0.6099996 1.0879084e-38
0.5006066 -0.14339873 0.60999966 1.0879084e-38
0.5083859 -0.14357287 0.60999966 1.0879084e-38
0.51470143 -0.14326696 0.60999972 1.0879084e-38
0.52150744 -0.14373797 0.60999972 1.0879084e-38
0.52892083 -0.1435587 0.60999978 1.0879084e-38
0.53552967 -0.14338753 0.60999978 1.0879084e-38
0.5424937 -0.14372647 0.60999984 1.0879084e-38
0.54923874 -0.14327818 0.61000007 1.0879084e-38
0.55654603 -0.14367431 0.61000001 1.0879084e-38
0.56342155 -0.14314239 0.61000007 1.0879084e-38
0.5705573 -0.14364871 0.61000013 1.0879084e-38
0.57777017 -0.1433102 0.61000013 1.0879084e-38
0.58418065 -0.14380817 0.61000019 1.0879084e-38
0.59139031 -0.14334671 0.61000025 1.0879084e-38
0.59884173 -0.14372069 0.61000025 1.0879084e-38
0.60529906 -0.14338349 0.61000031 1.0879084e-38
0.61182094 -0.14362414 0.61000043 1.0879084e-38
0.61951458 -0.14342156 0.61000055 1.0879084e-38
0.62729478 -0.14350905 0.61000055 1.0879084e-38
0.63403815 -0.14345998 0.61000055 1.0879084e-38
0.64085054 -0.14370634 0.61000061 1.0879084e-38
0.64773268 -0.14335817 0.61000061 1.0879084e-38
0.6544739 -0.14393705 0.61000067 1.0879084e-38
0.66171098 -0.14325425 0.61000067 1.0879084e-38
0.66859281 -0.14383863 0.61000079 1.0879084e-38
0.67598152 -0.14314814 0.61000079 1.0879084e-38
0.68300855 -0.14373814 0.61000085 1.0879084e-38
0.68950111 -0.14331172 0.61000097 1.0879084e-38
0.69548029 -0.1436235 0.61000103 1.0879084e-38
0.70318514 -0.143226 0.61000103 1.0879084e-38
0.71047002 -0.14351872 0.61000109 1.0879084e-38
0.71783113 -0.1438133 0.61000109 1.0879084e-38
0.7244941 -0.14326215 0.61000115 1.0879084e-38
0.73072755 -0.14372347 0.61000115 1.0879084e-38
0.73904192 -0.14328937 0.61000115 1.0879084e-38
0.74539977 -0.14375614 0.61000127 1.0879084e-38
0.75206113 -0.14355069 0.61000133 1.0879084e-38
0.76013356 -0.14349608 0.61000144 1.0879084e-38
0.76692724 -0.14328681 0.6100015 1.0879084e-38
0.77403909 -0.1433716 0.6100015 1.0879084e-38
0.78071004 -0.14385013 0.61000156 1.0879084e-38
0.78770113 -0.1436401 0.61000156 1.0879084e-38
0.79475397 -0.14342757 0.61000162 1.0879084e-38
0.80159223 -0.14358184 0.61000168 1.0879084e-38
0.80927265 -0.14345019 0.61000174 1.0879084e-38
0.81486815 -0.14363028 0.6100018 1.0879084e-38
0.8221857 -0.14341432 0.61000186 1.0879084e-38
0.82978153 -0.14365523 0.61000192 1.0879084e-38
0.83531654 -0.14337635 0.61000192 1.0879084e-38
0.84304905 -0.14362065 0.61000198 1.0879084e-38
0.85063684 -0.14340007 0.61000204 1.0879084e-38
0.85654312 -0.14358391 0.61000204 1.097128e-38
0.86449128 -0.14383268 0.6100021 1.097128e-38
0.33298588 -0.13650845 0.60999864 1.0786889e-38
0.33981088 -0.13658249 0.60999864 1.0786889e-38
0.34672624 -0.13651821 0.6099987 1.0786889e-38
0.35373393 -0.13645157 0.6099987 1.0879084e-38
0.36083618 -0.13652596 0.6099987 1.0879084e-38
0.36803418 -0.13660215 0.6099987 1.0879084e-38
0.37459487 -0.13642807 0.60999876 1.0879084e-38
0.38130152 -0.13639179 0.60999876 1.0879084e-38
0.38865498 -0.13661934 0.60999876 1.0879084e-38
0.39553511 -0.13658535 0.60999888 1.0879084e-38
0.40264288 -0.13639621 0.60999882 1.0879084e-38
0.4092584 -0.1367584 0.609999 1.0879084e-38
0.416383 -0.13649355 0.60999894 1.0879084e-38
0.42381206 -0.13632958 0.609999 1.0879084e-38
0.42995805 -0.13669986 0.60999912 1.0879084e-38
0.43735138 -0.13642965 0.6099993 1.0879084e-38
0.4451161 -0.13644806 0.60999936 1.0879084e-38
0.45144334 -0.13663906 0.60999936 1.0879084e-38
0.45854306 -0.13657603 0.60999948 1.0879084e-38
0.46541905 -0.13634558 0.60999942 1.0879084e-38
0.47206849 -0.13653092 0.60999954 1.0879084e-38
0.47942522 -0.13646576 0.6099996 1.0879084e-38
0.48617864 -0.13646133 0.6099996 1.0879084e-38
0.49367198 -0.13659784 0.60999966 1.0879084e-38
0.50081003 -0.13657528 0.60999966 1.0879084e-38
0.50797397 -0.13635519 0.60999972 1.0879084e-38
0.51470143 -0.13678591 0.60999972 1.0879084e-38
0.52108657 -0.13644202 0.60999972 1.0879084e-38
0.52913392 -0.13657337 0.60999978 1.0879084e-38
0.53566819 -0.13622507 0.60999984 1.0879084e-38
0.54271144 -0.13666418 0.6099999 1.0879084e-38
0.54939115 -0.1363125 0.61000007 1.0879084e-38
0.55642784 -0.1365606 0.61000001 1.0879084e-38
0.56342155 -0.13640189 0.61000007 1.0879084e-38
0.57061732 -0.13665329 0.61000013 1.0879084e-38
0.57777017 -0.13649327 0.61000019 1.0879084e-38
0.58401954 -0.13669527 0.61000019 1.0879084e-38
0.59139019 -0.13645726 0.61000025 1.0879084e-38
0.59884143 -0.13650289 0.61000025 1.0879084e-38
0.60529906 -0.13641995 0.61000037 1.0879084e-38
0.61182094 -0.1366259 0.61000043 1.0879084e-38
0.61951464 -0.13638236 0.61000055 1.0879084e-38
0.62729454 -0.13672349 0.61000055 1.0879084e-38
0.63403815 -0.1363434 0.61000055 1.0879084e-38
0.64064294 -0.13688174 0.61000061 1.0879084e-38
0.64773268 -0.13616867 0.61000061 1.0879084e-38
0.6546858 -0.13698328 0.61000067 1.0879084e-38
0.6619249 -0.1362623 0.61000067 1.0879084e-38
0.66880918 -0.13681246 0.61000079 1.0879084e-38
0.67619991 -0.13608302 0.61000079 1.0879084e-38
0.68322945 -0.13663809 0.61000091 1.0879084e-38
0.68915111 -0.13691868 0.61000097 1.0879084e-38
0.69548017 -0.13617975 0.61000103 1.0879084e-38
0.70270795 -0.13674207 0.61000103 1.0879084e-38
0.7106995 -0.13627683 0.61000103 1.0879084e-38
0.71808624 -0.13684687 0.61000109 1.0879084e-38
0.72449404 -0.13661368 0.61000109 1.0879084e-38
0.73096395 -0.13637881 0.61000115 1.0879084e-38
0.73854065 -0.13663992 0.61000121 1.0879084e-38
0.74539977 -0.13604657 0.61000127 1.0879084e-38
0.75206113 -0.13677377 0.61000139 1.0879084e-38
0.76040441 -0.13632077 0.61000144 1.0879084e-38
0.76692724 -0.13644062 0.6100015 1.0879084e-38
0.77351314 -0.13656071 0.6100015 1.0879084e-38
0.78090876 -0.13639638 0.61000156 1.0879084e-38
0.78770107 -0.13669707 0.61000156 1.0879084e-38
0.79475397 -0.13645171 0.61000162 1.0879084e-38
0.80213839 -0.13650435 0.61000162 1.0879084e-38
0.80885977 -0.13650712 0.61000186 1.0879084e-38
0.81486815 -0.13656069 0.6100018 1.0879084e-38
0.82245278 -0.13661459 0.6100018 1.0879084e-38
0.82935745 -0.13661791 0.61000192 1.0879084e-38
0.83553022 -0.13667268 0.61000198 1.0879084e-38
0.84304905 -0.13641974 0.61000198 1.0879084e-38
0.85063678 -0.13616383 0.61000204 1.0879084e-38
0.85676283 -0.13678773 0.61000204 1.0879084e-38
0.86449128 -0.13653187 0.6100021 1.0879084e-38
0.33298606 -0.12947889 0.60999864 1.0786889e-38
0.33981088 -0.12964533 0.60999864 1.0786889e-38
0.34672624 -0.129535 0.60999864 1.0786889e-38
0.35373402 -0.12942179 0.6099987 1.0786889e-38
0.360836 -0.12959042 0.6099987 1.0786889e-38
0.36791325 -0.12962669 0.6099987 1.0879084e-38
0.3745949 -0.12925938 0.60999876 1.0879084e-38
0.38123974 -0.12947012 0.60999876 1.0879084e-38
0.388592 -0.12965158 0.60999876 1.0879084e-38
0.39553511 -0.12927729 0.60999882 1.0879084e-38
0.40244165 -0.12949227 0.60999894 1.0879084e-38
0.40943211 -0.12971207 0.609999 1.0879084e-38
0.41672164 -0.12947547 0.60999894 1.0879084e-38
0.42354417 -0.12960939 0.60999906 1.0879084e-38
0.43013835 -0.12952225 0.60999906 1.0879084e-38
0.43771285 -0.12943119 0.60999936 1.0879084e-38
0.44474614 -0.1296097 0.60999936 1.0879084e-38
0.45176336 -0.12950404 0.60999936 1.0879084e-38
0.45825836 -0.12964857 0.60999942 1.0879084e-38
0.46513042 -0.12937732 0.60999948 1.0879084e-38
0.47236049 -0.12946737 0.60999954 1.0879084e-38
0.47903278 -0.12942301 0.6099996 1.0879084e-38
0.48653471 -0.12950526 0.6099996 1.0879084e-38
0.49336979 -0.1294608 0.60999966 1.0879084e-38
0.50095451 -0.12955372 0.60999966 1.0879084e-38
0.5081799 -0.12948874 0.60999966 1.0879084e-38
0.51470149 -0.12949474 0.60999972 1.0879084e-38
0.52129698 -0.12950119 0.60999972 1.0879084e-38
0.52870774 -0.12923446 0.60999972 1.0879084e-38
0.53566831 -0.12963237 0.60999984 1.0879084e-38
0.54243582 -0.12943661 0.6099999 1.0879084e-38
0.54939109 -0.12964673 0.61000007 1.0879084e-38
0.55630994 -0.12944885 0.61000001 1.0879084e-38
0.56342167 -0.12966137 0.61000007 1.0879084e-38
0.57049686 -0.12946136 0.61000013 1.0879084e-38
0.57777023 -0.12967637 0.61000013 1.0879084e-38
0.58401936 -0.12955968 0.61000019 1.0879084e-38
0.59139031 -0.12956782 0.61000025 1.0879084e-38
0.59884167 -0.12928499 0.61000025 1.0879084e-38
0.60529906 -0.12945645 0.61000043 1.0879084e-38
0.61182094 -0.12962769 0.61000043 1.0879084e-38
0.61951458 -0.12934315 0.61000055 1.0879084e-38
0.6272946 -0.12964284 0.61000055 1.0879084e-38
0.63403815 -0.12922686 0.61000055 1.0879084e-38
0.64085048 -0.12999776 0.61000061 1.0879084e-38
0.64773268 -0.12897919 0.61000061 1.0879084e-38
0.6546858 -0.12975676 0.61000067 1.0879084e-38
0.66171098 -0.12933068 0.61000067 1.0879084e-38
0.66880918 -0.12951075 0.61000073 1.0879084e-38
0.67574137 -0.12972577 0.61000079 1.0879084e-38
0.68322951 -0.12925957 0.61000091 1.0879084e-38
0.68932611 -0.12992512 0.61000097 1.0879084e-38
0.69572747 -0.12932046 0.61000103 1.0879084e-38
0.70293522 -0.12953992 0.61000103 1.0879084e-38
0.71021765 -0.12976047 0.61000103 1.0879084e-38
0.7180863 -0.12928273 0.61000109 1.0879084e-38
0.7244941 -0.1299652 0.61000109 1.0879084e-38
0.73122394 -0.12934539 0.61000115 1.0879084e-38
0.73880321 -0.12957059 0.61000115 1.0879084e-38
0.74539977 -0.12930067 0.61000133 1.0879084e-38
0.75230426 -0.12931749 0.61000139 1.0879084e-38
0.75988752 -0.12957543 0.61000144 1.0879084e-38
0.76692724 -0.1295944 0.6100015 1.0879084e-38
0.77378851 -0.12931977 0.61000156 1.0879084e-38
0.78051132 -0.12958543 0.61000156 1.0879084e-38
0.78798211 -0.12938522 0.61000156 1.0879084e-38
0.79475397 -0.12947583 0.61000162 1.0879084e-38
0.80159223 -0.12956639 0.61000162 1.0879084e-38
0.80927265 -0.12936318 0.61000174 1.0879084e-38
0.81486815 -0.12949112 0.61000174 1.0879084e-38
0.82189196 -0.12958297 0.61000174 1.0879084e-38
0.82978153 -0.12937708 0.61000192 1.0879084e-38
0.83553022 -0.12950681 0.61000192 1.0879084e-38
0.84304911 -0.12921885 0.61000198 1.0879084e-38
0.85063678 -0.12996133 0.61000204 1.0879084e-38
0.85676277 -0.12952293 0.6100021 1.0879084e-38
0.86449128 -0.12923107 0.6100021 1.0879084e-38
0.33293384 -0.12245285 0.60999864 1.0786889e-38
0.33986366 -0.12256593 0.60999864 1.0786889e-38
0.34672618 -0.12255185 0.60999864 1.0786889e-38
0.35373399 -0.12239192 0.6099987 1.0786889e-38
0.36083603 -0.12251332 0.6099987 1.0786889e-38
0.36803421 -0.12263788 0.6099987 1.0786889e-38
0.37471065 -0.12225678 0.60999876 1.0879084e-38
0.38117778 -0.12254971 0.60999876 1.0879084e-38
0.38871762 -0.12252773 0.60999876 1.0879084e-38
0.39570457 -0.12231578 0.60999888 1.0879084e-38
0.40223998 -0.12259213 0.60999876 1.0879084e-38
0.40943211 -0.12231149 0.609999 1.0879084e-38
0.41644666 -0.12263801 0.60999894 1.0879084e-38
0.42368549 -0.12266252 0.60999906 1.0879084e-38
0.43031865 -0.12234133 0.60999912 1.0879084e-38
0.4372741 -0.1226266 0.60999936 1.0879084e-38
0.44506243 -0.12251417 0.60999936 1.0879084e-38
0.45148203 -0.12261877 0.6099993 1.0879084e-38
0.45840859 -0.1224875 0.60999948 1.0879084e-38
0.46526667 -0.12256396 0.60999948 1.0879084e-38
0.47206849 -0.12245936 0.60999954 1.0879084e-38
0.47938493 -0.12250689 0.6099996 1.0879084e-38
0.48613754 -0.12242246 0.6099996 1.0879084e-38
0.49373022 -0.12246051 0.60999966 1.0879084e-38
0.50064862 -0.12237504 0.60999966 1.0879084e-38
0.5083859 -0.12261874 0.60999966 1.0879084e-38
0.51470143 -0.12220353 0.60999972 1.0879084e-38
0.5215075 -0.12255674 0.60999972 1.0879084e-38
0.52892083 -0.12224914 0.60999978 1.0879084e-38
0.5358175 -0.12273968 0.60999978 1.0879084e-38
0.54232079 -0.12240515 0.6099999 1.0879084e-38
0.54954362 -0.1226776 0.61000007 1.0879084e-38
0.5561924 -0.12233903 0.61000001 1.0879084e-38
0.56342167 -0.12292087 0.61000013 1.0879084e-38
0.57037663 -0.12227141 0.61000013 1.0879084e-38
0.57777017 -0.12285946 0.61000013 1.0879084e-38
0.58385861 -0.12216491 0.61000019 1.0879084e-38
0.59139025 -0.12267838 0.61000025 1.0879084e-38
0.59884173 -0.12235587 0.61000025 1.0879084e-38
0.60529906 -0.12249292 0.61000037 1.0879084e-38
0.61182094 -0.12262941 0.61000043 1.0879084e-38
0.61951452 -0.12230392 0.61000049 1.0879084e-38
0.62709111 -0.12288925 0.61000055 1.0879084e-38
0.63403815 -0.12211028 0.61000055 1.0879084e-38
0.64085054 -0.12284493 0.61000061 1.0879084e-38
0.64794225 -0.1220567 0.61000061 1.0879084e-38
0.6546858 -0.12253026 0.61000067 1.0879084e-38
0.66147578 -0.12270814 0.61000067 1.0879084e-38
0.66880918 -0.12220902 0.61000079 1.0879084e-38
0.67598152 -0.12296338 0.61000079 1.0879084e-38
0.6834501 -0.12215507 0.61000085 1.0879084e-38
0.68932605 -0.12251413 0.61000097 1.0879084e-38
0.69525534 -0.12287562 0.61000103 1.0879084e-38
0.70316213 -0.12233439 0.61000103 1.0879084e-38
0.71046996 -0.12282888 0.61000109 1.0879084e-38
0.71834171 -0.12231123 0.61000109 1.0879084e-38
0.7244941 -0.12236694 0.61000115 1.0879084e-38
0.73072761 -0.12273695 0.61000115 1.0879084e-38
0.73904192 -0.12218111 0.61000121 1.0879084e-38
0.74539977 -0.12255478 0.61000127 1.0879084e-38
0.75179368 -0.12261178 0.61000139 1.0879084e-38
0.76037943 -0.12236815 0.61000144 1.0879084e-38
0.76692724 -0.12274821 0.6100015 1.0879084e-38
0.77378863 -0.1224416 0.6100015 1.0879084e-38
0.78071004 -0.12213166 0.61000156 1.0879084e-38
0.7874456 -0.12251525 0.61000156 1.0879084e-38
0.79475397 -0.12249998 0.61000162 1.0879084e-38
0.80213839 -0.12248383 0.61000162 1.0879084e-38
0.80885983 -0.12242394 0.61000186 1.0879084e-38
0.81486815 -0.12242153 0.6100018 1.0879084e-38
0.8224529 -0.12240477 0.61000192 1.0879084e-38
0.82935745 -0.12234372 0.61000192 1.0879084e-38
0.83553022 -0.12234095 0.61000192 1.0879084e-38
0.84335136 -0.12266274 0.61000198 1.0879084e-38
0.85063684 -0.12272507 0.61000204 1.0879084e-38
0.85676283 -0.12225813 0.6100021 1.0879084e-38
0.86480206 -0.12258396 0.6100021 1.0879084e-38
0.33288187 -0.11529001 0.60999864 1.0786889e-38
0.33981088 -0.11549319 0.60999864 1.0786889e-38
0.34672624 -0.11556865 0.6099987 1.0786889e-38
0.35373399 -0.11536211 0.6099987 1.0786889e-38
0.36077651 -0.11558201 0.6099987 1.0786889e-38
0.36803412 -0.11551287 0.6099987 1.0786889e-38
0.37463358 -0.11545426 0.60999876 1.0786889e-38
0.38111565 -0.11563049 0.60999876 1.0786889e-38
0.38884291 -0.11540151 0.60999876 1.0879084e-38
0.39549512 -0.11557832 0.60999882 1.0879084e-38
0.40244147 -0.11552081 0.60999882 1.0879084e-38
0.40960586 -0.11526074 0.609999 1.0879084e-38
0.41638303 -0.11564237 0.60999894 1.0879084e-38
0.42381206 -0.11533992 0.60999912 1.0879084e-38
0.42995811 -0.11559562 0.60999912 1.0879084e-38
0.43762529 -0.11547357 0.60999924 1.0879084e-38
0.4447844 -0.11567057 0.6099993 1.0879084e-38
0.4516305 -0.11549858 0.60999936 1.0879084e-38
0.45840865 -0.11553355 0.60999948 1.0879084e-38
0.4652667 -0.11556894 0.60999954 1.0879084e-38
0.47220638 -0.11560472 0.60999954 1.0879084e-38
0.47908944 -0.11545873 0.6099996 1.0879084e-38
0.486494 -0.11546264 0.6099996 1.0879084e-38
0.49332821 -0.11533722 0.6099996 1.0879084e-38
0.50097179 -0.11553471 0.60999966 1.0879084e-38
0.50797397 -0.11540817 0.60999966 1.0879084e-38
0.51470143 -0.11572248 0.60999972 1.0879084e-38
0.52108645 -0.11526806 0.60999972 1.0879084e-38
0.52892083 -0.11569238 0.60999972 1.0879084e-38
0.53552967 -0.11537164 0.60999978 1.0879084e-38
0.5424937 -0.11555298 0.60999995 1.0879084e-38
0.54939091 -0.11548107 0.61000007 1.0879084e-38
0.55636907 -0.11541045 0.61000001 1.0879084e-38
0.56357765 -0.11587281 0.61000007 1.0879084e-38
0.5705573 -0.11526473 0.61000013 1.0879084e-38
0.57777017 -0.11604255 0.61000013 1.0879084e-38
0.58401954 -0.11500391 0.61000019 1.0879084e-38
0.59139019 -0.11578894 0.61000025 1.0879084e-38
0.59867704 -0.11516552 0.61000025 1.0879084e-38
0.60529906 -0.11552941 0.61000043 1.0879084e-38
0.61182094 -0.1156312 0.61000043 1.0879084e-38
0.61951464 -0.11526471 0.61000055 1.0879084e-38
0.6272946 -0.1160726 0.61000055 1.0879084e-38
0.63403815 -0.11499374 0.61000055 1.0879084e-38
0.64085054 -0.11569208 0.61000061 1.0879084e-38
0.64773291 -0.11549782 0.61000061 1.0879084e-38
0.6546858 -0.11530373 0.61000067 1.0879084e-38
0.66171092 -0.11601454 0.61000067 1.0879084e-38
0.66902524 -0.11517736 0.61000079 1.0879084e-38
0.67598158 -0.11562347 0.61000079 1.0879084e-38
0.6829868 -0.11576904 0.61000079 1.0879084e-38
0.68932611 -0.11510314 0.61000091 1.0879084e-38
0.69548017 -0.11570945 0.61000103 1.0879084e-38
0.70277041 -0.11542118 0.6099925 1.0879084e-38
