# .PCD v0.7 - Point Cloud Data file format
VERSION 0.7
FIELDS x y z rgb
SIZE 4 4 4 4
TYPE F F F F
COUNT 1 1 1 1
WIDTH 1007
HEIGHT 1
VIEWPOINT 0 0 0 1 0 0 0
POINTS 1007
DATA ascii
0.41632593 -0.27751726 0.69592905 1.0358775e-38
0.42224893 -0.27421424 0.69674104 1.0358775e-38
0.42572731 -0.27227479 0.69691652 1.0358775e-38
0.43019649 -0.2703996 0.6971938 1.0358775e-38
0.43865865 -0.26868504 0.69662583 1.0358775e-38
0.44508922 -0.26775587 0.69573617 1.0358775e-38
0.44815373 -0.26984769 0.69988775 1.0358775e-38
0.39670405 -0.29831541 0.70381707 1.0358775e-38
0.39729732 -0.29165295 0.70374078 1.0358775e-38
0.40119761 -0.2884728 0.70379001 1.0358775e-38
0.41266716 -0.28965491 0.70598102 1.0358775e-38
0.40443039 -0.28570184 0.70307779 1.0358775e-38
0.40877762 -0.28221399 0.70349306 1.0358775e-38
0.41230232 -0.27972981 0.7031647 1.0358775e-38
0.41646498 -0.2774145 0.70285583 1.0358775e-38
0.42227429 -0.27417603 0.70387721 1.0358775e-38
0.42581514 -0.27220374 0.70393223 1.0358775e-38
0.43036243 -0.2697002 0.70392066 1.0358775e-38
0.43709874 -0.26711649 0.70421791 1.0358775e-38
0.44376159 -0.26750737 0.70296913 1.0358775e-38
0.44964352 -0.27162033 0.70011079 1.0358775e-38
0.39576319 -0.29746816 0.71080112 1.0358775e-38
0.3968412 -0.29248264 0.71049803 1.0358775e-38
0.40160185 -0.28886679 0.70993042 1.0358775e-38
0.40482423 -0.28540882 0.71050942 1.0358775e-38
0.40915129 -0.28261182 0.71040106 1.0358775e-38
0.41252366 -0.27971685 0.71007627 1.0358775e-38
0.41670126 -0.27722883 0.71002281 1.0358775e-38
0.42226341 -0.27412131 0.71109968 1.0358775e-38
0.42589089 -0.27210799 0.7110976 1.0358775e-38
0.43074566 -0.26941863 0.71065086 1.0358775e-38
0.43569329 -0.26671124 0.71050149 1.0358775e-38
0.43833059 -0.26555431 0.71028566 1.0358775e-38
0.39632538 -0.29762051 0.71744746 1.0358775e-38
0.39644021 -0.29144168 0.71770257 1.0358775e-38
0.40071452 -0.28826621 0.71690071 1.0358775e-38
0.40422228 -0.28536406 0.71847892 1.0358775e-38
0.40939727 -0.28197563 0.71767217 1.0358775e-38
0.41247803 -0.27972016 0.7181977 1.0358775e-38
0.41639736 -0.27742708 0.71754211 1.0358775e-38
0.42237118 -0.27403066 0.71803552 1.0358775e-38
0.42575383 -0.27215061 0.7177996 1.0358775e-38
0.43059412 -0.26947361 0.71755201 1.0358775e-38
0.43547428 -0.26677462 0.71730489 1.0358775e-38
0.43776065 -0.26550913 0.71769989 1.0358775e-38
0.39754716 -0.29771265 0.72363138 1.0358775e-38
0.3965669 -0.29043242 0.72472054 1.0358775e-38
0.39985779 -0.28751031 0.72436166 1.0358775e-38
0.40344781 -0.28524682 0.72454512 1.0358775e-38
0.40902847 -0.28194019 0.72456795 1.0358775e-38
0.41256538 -0.27983958 0.72431421 1.0358775e-38
0.41659188 -0.27747345 0.72448921 1.0358775e-38
0.42217624 -0.27427411 0.7246964 1.0358775e-38
0.42571092 -0.27225801 0.72427046 1.0358775e-38
0.43048957 -0.26956058 0.7242949 1.0358775e-38
0.43530181 -0.26686636 0.72395307 1.0358775e-38
0.43798578 -0.26537153 0.72452945 1.0358775e-38
0.39667815 -0.29805133 0.73102206 1.0358775e-38
0.39676771 -0.29057294 0.73173499 1.0358775e-38
0.39987937 -0.2877759 0.73180026 1.0358775e-38
0.40310791 -0.28555283 0.73117942 1.0358775e-38
0.40946302 -0.28188103 0.73156637 1.0358775e-38
0.41651934 -0.27786258 0.73160017 1.0358775e-38
0.4223651 -0.2743544 0.73164308 1.0358775e-38
0.42596379 -0.27230632 0.73137677 1.0358775e-38
0.43058437 -0.26976186 0.73132104 1.0358775e-38
0.43668056 -0.26700643 0.73179561 1.0358775e-38
0.43961573 -0.26544553 0.73058116 1.0358775e-38
0.44156635 -0.26596648 0.73488194 1.0358775e-38
0.39461461 -0.29565552 0.73924226 1.0358775e-38
0.39715749 -0.29214814 0.73804599 1.0358775e-38
0.40071502 -0.28892124 0.73873156 1.0358775e-38
0.40413755 -0.28548524 0.73821485 1.0358775e-38
0.40907171 -0.28197518 0.73872113 1.0358775e-38
0.41258729 -0.27991456 0.74144667 1.0358775e-38
0.41646901 -0.27783567 0.7388587 1.0358775e-38
0.42309377 -0.27436721 0.73893535 1.0358775e-38
0.42631829 -0.2726877 0.73740238 1.0358775e-38
0.43067661 -0.27113023 0.73810166 1.0358775e-38
0.43765533 -0.26848224 0.73829627 1.0358775e-38
0.44293436 -0.26684991 0.73968124 1.0358775e-38
0.44245729 -0.26593846 0.73594546 1.0358775e-38
0.39467195 -0.29676244 0.74565196 1.0358775e-38
0.40176135 -0.29760957 0.7471022 1.0358775e-38
0.39801601 -0.29315212 0.74452478 1.0358775e-38
0.40163463 -0.28972375 0.74541181 1.0358775e-38
0.40509543 -0.28616327 0.74495083 1.0358775e-38
0.40879396 -0.28272051 0.74560606 1.0358775e-38
0.41259599 -0.27987486 0.74623752 1.0358775e-38
0.41654903 -0.27772903 0.74546713 1.0358775e-38
0.42357779 -0.27447879 0.74553943 1.0358775e-38
0.42758062 -0.27301449 0.74899054 1.0358775e-38
0.440611 -0.27750996 0.74384749 1.0358775e-38
0.43051401 -0.27176425 0.74539709 1.0358775e-38
0.43712261 -0.26933378 0.74561548 1.0358775e-38
0.44263545 -0.26733428 0.74521816 1.0358775e-38
0.39449325 -0.29760882 0.75266451 1.0358775e-38
0.39673698 -0.29251039 0.75307339 1.0358775e-38
0.40219042 -0.28923416 0.75155896 1.0358775e-38
0.4052968 -0.28648433 0.75315285 1.0358775e-38
0.40934739 -0.2831907 0.7521199 1.0358775e-38
0.41307896 -0.28015 0.75496012 1.0358775e-38
0.41260469 -0.27983552 0.75098556 1.0358775e-38
0.41622958 -0.27791989 0.75237983 1.0358775e-38
0.42352244 -0.27478611 0.75260717 1.0358775e-38
0.4273988 -0.27324137 0.75279963 1.0358775e-38
0.42612362 -0.26962274 0.75007176 1.0358775e-38
0.43101633 -0.27178431 0.75259852 1.0358775e-38
0.43756211 -0.26920018 0.7526176 1.0358775e-38
0.4425357 -0.26733059 0.75208056 1.0358775e-38
0.39563471 -0.29743657 0.75920635 1.0358775e-38
0.39594707 -0.29072607 0.76035994 1.0358775e-38
0.4005852 -0.28784037 0.75837392 1.0358775e-38
0.4037132 -0.28535849 0.75975931 1.0358775e-38
0.40953803 -0.28176525 0.75968987 1.0358775e-38
0.41268107 -0.27980286 0.76026303 1.0358775e-38
0.41643083 -0.27789339 0.75947016 1.0358775e-38
0.42325056 -0.27490211 0.75975674 1.0358775e-38
0.42748952 -0.27333811 0.75733495 1.0358775e-38
0.43077448 -0.2718623 0.75969714 1.0358775e-38
0.43751591 -0.26916799 0.75938034 1.0358775e-38
0.44225663 -0.26727557 0.75931728 1.0358775e-38
0.39585221 -0.2975508 0.76621515 1.0358775e-38
0.39617583 -0.29002121 0.76685715 1.0358775e-38
0.3995041 -0.28745663 0.76594293 1.0358775e-38
0.40286449 -0.28513011 0.76624274 1.0358775e-38
0.40923336 -0.2817353 0.76626581 1.0358775e-38
0.41267717 -0.27973303 0.76720363 1.0358775e-38
0.41617432 -0.27793425 0.76643741 1.0358775e-38
0.42352334 -0.27458435 0.76664972 1.0358775e-38
0.43020794 -0.27164218 0.76663429 1.0358775e-38
0.43743107 -0.2686508 0.766653 1.0358775e-38
0.4422366 -0.26675057 0.76621699 1.0358775e-38
0.39538154 -0.29726902 0.77284169 1.0358775e-38
0.39610744 -0.29053113 0.77361614 1.0358775e-38
0.40009087 -0.28769457 0.77375305 1.0358775e-38
0.40357995 -0.28529006 0.77305341 1.0358775e-38
0.40897194 -0.2818912 0.77389371 1.0358775e-38
0.41243133 -0.27981195 0.77329654 1.0358775e-38
0.41638651 -0.27783102 0.77361244 1.0358775e-38
0.42323288 -0.27472407 0.77345955 1.0358775e-38
0.43077797 -0.27134028 0.7736631 1.0358775e-38
0.43769985 -0.26826039 0.77368891 1.0358775e-38
0.44195095 -0.26645932 0.77385396 1.0358775e-38
0.4296124 -0.2626161 0.77205861 1.0358775e-38
0.394429 -0.29786104 0.7807036 1.0358775e-38
0.39585367 -0.2912108 0.78067172 1.0358775e-38
0.40022671 -0.28784975 0.78092116 1.0358775e-38
0.40388861 -0.28542399 0.78022039 1.0358775e-38
0.40891528 -0.28210536 0.78061712 1.0358775e-38
0.41249672 -0.27979422 0.77996254 1.0358775e-38
0.41650105 -0.27806243 0.78051519 1.0358775e-38
0.42358357 -0.27511758 0.78043288 1.0358775e-38
0.42792475 -0.27338341 0.78095174 1.0358775e-38
0.41693544 -0.27091542 0.77961379 1.0358775e-38
0.43134746 -0.27180597 0.78021723 1.0358775e-38
0.43727905 -0.26931623 0.78049171 1.0358775e-38
0.44217616 -0.26727149 0.78078163 1.0358775e-38
0.39192429 -0.29674804 0.79039788 1.0358775e-38
0.39314607 -0.29611021 0.78745615 1.0358775e-38
0.39651334 -0.2917423 0.7875222 1.0358775e-38
0.40053689 -0.28816319 0.78779447 1.0358775e-38
0.40388626 -0.28534651 0.78757298 1.0358775e-38
0.40955353 -0.28165081 0.78723717 1.0358775e-38
0.41343004 -0.28006577 0.7907719 1.0358775e-38
0.41643414 -0.27861115 0.78727847 1.0358775e-38
0.42337665 -0.27586868 0.78758901 1.0358775e-38
0.4288494 -0.27368134 0.78748971 1.0358775e-38
0.43217701 -0.27232066 0.78724337 1.0358775e-38
0.43733883 -0.27023274 0.78733718 1.0358775e-38
0.44259149 -0.26814413 0.78757155 1.0358775e-38
0.39171687 -0.29761127 0.79513097 1.0358775e-38
0.39345896 -0.29632065 0.79449689 1.0358775e-38
0.39707702 -0.29224956 0.79454571 1.0358775e-38
0.40099588 -0.28869343 0.79451108 1.0358775e-38
0.40449262 -0.28552228 0.79423922 1.0358775e-38
0.40925109 -0.28199756 0.79425532 1.0358775e-38
0.41346437 -0.28004968 0.79509115 1.0358775e-38
0.41679853 -0.27862522 0.79469711 1.0358775e-38
0.42344761 -0.27594683 0.7944504 1.0358775e-38
0.42868131 -0.2738106 0.79378098 1.0358775e-38
0.43207365 -0.27197027 0.79441154 1.0358775e-38
0.43767491 -0.26925862 0.79460341 1.0358775e-38
0.44369474 -0.27028945 0.79375565 1.0358775e-38
0.3918753 -0.29877704 0.79926288 1.0358775e-38
0.39421904 -0.2967495 0.80169249 1.0358775e-38
0.39784545 -0.29261675 0.80115461 1.0358775e-38
0.40115869 -0.28929678 0.80177784 1.0358775e-38
0.40466434 -0.2858018 0.80158055 1.0358775e-38
0.40924412 -0.28202802 0.80137157 1.0358775e-38
0.41636467 -0.27860621 0.80129886 1.0358775e-38
0.42282847 -0.27523834 0.8008275 1.0358775e-38
0.42758965 -0.27337301 0.79856437 1.0358775e-38
0.42597136 -0.27181333 0.80369204 1.0358775e-38
0.4306075 -0.26936623 0.80247706 1.0358775e-38
0.43577823 -0.26768968 0.80044287 1.0358775e-38
0.39450777 -0.29735735 0.80786359 1.0358775e-38
0.39804664 -0.29314151 0.80821496 1.0358775e-38
0.40137997 -0.28988251 0.80747235 1.0358775e-38
0.40470201 -0.28574857 0.80874795 1.0358775e-38
0.40905428 -0.28208843 0.80815554 1.0358775e-38
0.41259703 -0.27968043 0.80922109 1.0358775e-38
0.41662046 -0.27728671 0.80868369 1.0358775e-38
0.42192656 -0.2740925 0.80833411 1.0358775e-38
0.42536858 -0.27205634 0.80825865 1.0358775e-38
0.4303216 -0.26997447 0.80888933 1.0358775e-38
0.43667856 -0.2681407 0.80906689 1.0358775e-38
0.44136915 -0.26755738 0.8114543 1.0358775e-38
0.39336294 -0.29756099 0.81585902 1.0358775e-38
0.39644173 -0.29105383 0.8157562 1.0358775e-38
0.40026203 -0.28762296 0.81536722 1.0358775e-38
0.40356594 -0.28519812 0.81594467 1.0358775e-38
0.40913171 -0.28194377 0.81528932 1.0358775e-38
0.41268364 -0.2798878 0.81540853 1.0358775e-38
0.41644555 -0.27769548 0.81555724 1.0358775e-38
0.42293784 -0.27430075 0.8152771 1.0358775e-38
0.42714781 -0.27317661 0.81608421 1.0358775e-38
0.42579311 -0.27248207 0.81273484 1.0358775e-38
0.43046969 -0.27146909 0.8149851 1.0358775e-38
0.4371613 -0.2688359 0.81454986 1.0358775e-38
0.39464131 -0.2975336 0.82250059 1.0358775e-38
0.39552492 -0.29053894 0.82278925 1.0358775e-38
0.39996591 -0.28751066 0.82220459 1.0358775e-38
0.40335032 -0.28555211 0.82249755 1.0358775e-38
0.40955767 -0.28194854 0.8226282 1.0358775e-38
0.41283005 -0.27995622 0.81936419 1.0358775e-38
0.41658303 -0.27780914 0.82237792 1.0358775e-38
0.42225611 -0.27458566 0.82266289 1.0358775e-38
0.4258289 -0.27237174 0.8230359 1.0358775e-38
0.43066034 -0.27009705 0.82229596 1.0358775e-38
0.4362458 -0.2674996 0.82193804 1.0358775e-38
0.42795026 -0.26329088 0.8230384 1.0358775e-38
0.39621493 -0.29680657 0.82968491 1.0358775e-38
0.39724296 -0.29150492 0.82884699 1.0358775e-38
0.39993963 -0.28888547 0.83034027 1.0358775e-38
0.4035086 -0.28564957 0.82959783 1.0358775e-38
0.4093641 -0.2822178 0.82956421 1.0358775e-38
0.41302234 -0.28001773 0.8273201 1.0358775e-38
0.42457607 -0.28177613 0.82799739 1.0358775e-38
0.41639498 -0.27793548 0.82949626 1.0358775e-38
0.42281306 -0.27418804 0.82995605 1.0358775e-38
0.42570898 -0.2723628 0.82941926 1.0358775e-38
0.4303835 -0.27002287 0.83003515 1.0358775e-38
0.43580025 -0.26793951 0.83051986 1.0358775e-38
0.39806092 -0.29815301 0.83490729 1.0358775e-38
0.40179014 -0.29739833 0.83805603 1.0358775e-38
0.40933394 -0.29747501 0.83913678 1.0358775e-38
0.41518143 -0.29672694 0.83952051 1.0358775e-38
0.45383132 -0.29898429 0.83811998 1.0358775e-38
0.45542523 -0.29825336 0.83416402 1.0358775e-38
0.3988311 -0.29377472 0.83305371 1.0358775e-38
0.40252104 -0.29078609 0.83590823 1.0358775e-38
0.4095304 -0.29032335 0.83779097 1.0358775e-38
0.41615289 -0.29031524 0.83922005 1.0358775e-38
0.44727436 -0.28878477 0.83968431 1.0358775e-38
0.44919151 -0.2918433 0.83992249 1.0358775e-38
0.39859191 -0.28539127 0.8355698 1.0358775e-38
0.4044826 -0.28558406 0.83496886 1.0358775e-38
0.40983126 -0.28366816 0.83619642 1.0358775e-38
0.41612259 -0.28308147 0.83830833 1.0358775e-38
0.42061844 -0.28312391 0.83978689 1.0358775e-38
0.43983319 -0.28008276 0.83985364 1.0358775e-38
0.44398928 -0.28314361 0.83913815 1.0358775e-38
0.41756302 -0.27866989 0.83524865 1.0358775e-38
0.423444 -0.27693683 0.83662945 1.0358775e-38
0.43023878 -0.27568066 0.83753455 1.0358775e-38
0.43727028 -0.27586308 0.83848995 1.0358775e-38
0.44248432 -0.27742741 0.83780706 1.0358775e-38
0.43183875 -0.27209237 0.83446896 1.0358775e-38
0.43737042 -0.27103218 0.83523875 1.0358775e-38
0.41813928 -0.2984266 0.84033155 1.0358775e-38
0.42346209 -0.29747295 0.84149337 1.0358775e-38
0.42990232 -0.29733783 0.84294951 1.0358775e-38
0.437253 -0.29752341 0.84262758 1.0358775e-38
0.44465673 -0.29755831 0.84183222 1.0358775e-38
0.45022753 -0.29884136 0.84114534 1.0358775e-38
0.41959646 -0.29192838 0.84015721 1.0358775e-38
0.42365134 -0.29033434 0.84105206 1.0358775e-38
0.4304612 -0.29046997 0.84286612 1.0358775e-38
0.43767366 -0.29048404 0.84335238 1.0358775e-38
0.44413164 -0.29060715 0.84158468 1.0358775e-38
0.448587 -0.29327527 0.8406744 1.0358775e-38
0.42415491 -0.28363886 0.84069186 1.0358775e-38
0.43051136 -0.28350899 0.84183753 1.0358775e-38
0.43700054 -0.28355685 0.84187305 1.0358775e-38
0.44243342 -0.28518853 0.84050715 1.0358775e-38
0.42436162 -0.27982688 0.8401112 1.0358775e-38
0.43036065 -0.27958781 0.84018004 1.0358775e-38
0.43639314 -0.27944338 0.84029591 1.0358775e-38
0.44725427 0.20146716 0.61771113 4.4069688e-39
0.44875729 0.19819397 0.62093455 4.4069688e-39
0.43987915 0.20803899 0.62149334 4.4069688e-39
0.44203392 0.20566165 0.61960679 4.4069688e-39
0.43361107 0.21576142 0.62296468 4.4069688e-39
0.43725076 0.21235721 0.61993319 4.4069688e-39
0.43139121 0.22016351 0.62110406 4.4069688e-39
0.42835557 0.2276423 0.6207456 4.4069688e-39
0.4294076 0.23313342 0.62177312 4.4069688e-39
0.44998622 0.1947899 0.62751418 4.4069688e-39
0.44447175 0.19943407 0.62756807 4.4069688e-39
0.43907812 0.20749809 0.62695467 4.4069688e-39
0.44146016 0.20417701 0.62550527 4.4069688e-39
0.43305621 0.21577987 0.62689459 4.4069688e-39
0.43588716 0.2120831 0.62619007 4.4069688e-39
0.42670912 0.22385122 0.6296367 4.4069688e-39
0.42982939 0.22019677 0.62661755 4.4069688e-39
0.42602882 0.22648025 0.62736762 4.4069688e-39
0.42748308 0.23041248 0.62675911 4.4069688e-39
0.43005046 0.23508762 0.62721366 4.4069688e-39
0.43291453 0.2392917 0.62860996 4.4069688e-39
0.45163625 0.19435953 0.63346893 4.4069688e-39
0.45593047 0.19224894 0.6331383 4.4069688e-39
0.44421607 0.19919965 0.63374698 4.4069688e-39
0.43906334 0.20650609 0.6333912 4.4069688e-39
0.44115531 0.20309693 0.63567287 4.4069688e-39
0.43271747 0.21555293 0.6336742 4.4069688e-39
0.43520007 0.21210085 0.63358128 4.4069688e-39
0.42926747 0.22076489 0.63314122 4.4069688e-39
0.4260096 0.22718792 0.63352638 4.4069688e-39
0.42727804 0.22461881 0.63441765 4.4069688e-39
0.42957559 0.23446353 0.63482237 4.4069688e-39
0.43317378 0.23911729 0.63394284 4.4069688e-39
0.43720305 0.24212444 0.63400507 4.4069688e-39
0.45196459 0.19446222 0.63986033 4.4069688e-39
0.45573336 0.19268712 0.64056408 4.4069688e-39
0.44383749 0.19970371 0.64059258 4.4069688e-39
0.44854602 0.19814199 0.63986468 4.4069688e-39
0.43866298 0.20688598 0.6405943 4.4069688e-39
0.43287167 0.21516211 0.64117438 4.4069688e-39
0.43529609 0.21180156 0.64022648 4.4069688e-39
0.42959124 0.220319 0.63992822 4.4069688e-39
0.42614794 0.22664964 0.64019817 4.4069688e-39
0.42727062 0.22412272 0.63731867 4.4069688e-39
0.42956311 0.2338715 0.6395278 4.4069688e-39
0.43257892 0.23802526 0.63931447 4.4069688e-39
0.43626589 0.24102907 0.64137399 4.4069688e-39
0.44714481 0.19586577 0.6508109 4.4069688e-39
0.45042077 0.19399798 0.6466887 4.4069688e-39
0.45763168 0.19393241 0.64442265 4.4069688e-39
0.4438211 0.19951542 0.6475476 4.4069688e-39
0.43864521 0.20649463 0.64724392 4.4069688e-39
0.43265256 0.21454975 0.64770734 4.4069688e-39
0.43508598 0.21131235 0.64767998 4.4069688e-39
0.42678863 0.22339675 0.64958513 4.4069688e-39
0.42908213 0.21989234 0.64693218 4.4069688e-39
0.42596671 0.2276824 0.64802772 4.4069688e-39
0.42724618 0.224107 0.6459415 4.4069688e-39
0.42635083 0.23262438 0.65036166 4.4069688e-39
0.42417958 0.23842061 0.6503008 4.4069688e-39
0.43868801 0.2427031 0.64846194 4.4069688e-39
0.44714952 0.19526127 0.65496397 4.4069688e-39
0.44941199 0.19354564 0.65394026 4.4069688e-39
0.44017404 0.20263949 0.65706795 4.4069688e-39
0.44323501 0.19910245 0.65464294 4.4069688e-39
0.43785384 0.20640869 0.65449488 4.4069688e-39
0.42228425 0.21526267 0.65784752 4.4069688e-39
0.43180001 0.21433139 0.65480781 4.4069688e-39
0.434618 0.21093422 0.65410042 4.4069688e-39
0.4280116 0.22012787 0.65388727 4.4069688e-39
0.42675391 0.22820269 0.65526336 4.4069688e-39
0.42719653 0.22670625 0.6524815 4.4069688e-39
0.42680627 0.23306362 0.65405005 4.4069688e-39
0.42840162 0.23481244 0.65515858 4.4069688e-39
0.44704983 0.19546337 0.66017789 4.4069688e-39
0.45112142 0.19246256 0.66073078 4.4069688e-39
0.43966511 0.20098574 0.66227478 4.4069688e-39
0.44365683 0.19805641 0.66128057 4.4069688e-39
0.43675169 0.20651701 0.66190737 4.4069688e-39
0.43163246 0.21395719 0.66163391 4.4069688e-39
0.43452311 0.2102221 0.65843225 4.4069688e-39
0.42641449 0.22186795 0.65975666 4.4069688e-39
0.42857769 0.22003633 0.66214108 4.4069688e-39
0.42600298 0.22722335 0.66174001 4.4069688e-39
0.42729571 0.22460204 0.66402245 4.4069688e-39
0.42639065 0.23264964 0.65961254 4.4069688e-39
0.4296841 0.23607215 0.661255 4.4069688e-39
0.432089 0.23854178 0.65986091 4.4069688e-39
0.43670368 0.24178594 0.66297525 4.4069688e-39
0.44256553 0.24568427 0.66402233 4.4069688e-39
0.44562468 0.19497621 0.66925222 4.4069688e-39
0.45053259 0.19228682 0.66794765 4.4069688e-39
0.4560467 0.19167466 0.66896456 4.4069688e-39
0.43982074 0.20153587 0.66861528 4.4069688e-39
0.44208893 0.19841914 0.66908795 4.4069688e-39
0.43650118 0.20635258 0.66857702 4.4069688e-39
0.4321377 0.21337423 0.6682058 4.4069688e-39
0.43402088 0.21011573 0.66753036 4.4069688e-39
0.42694405 0.223948 0.67146808 4.4069688e-39
0.42926285 0.22042753 0.66723037 4.4069688e-39
0.42609635 0.22842923 0.66871589 4.4069688e-39
0.42744985 0.22563215 0.66650176 4.4069688e-39
0.42593125 0.23227546 0.6677615 4.4069688e-39
0.43011424 0.23578492 0.66874766 4.4069688e-39
0.43376541 0.23881446 0.66795945 4.4069688e-39
0.43749768 0.24163899 0.66844809 4.4069688e-39
0.44144708 0.24432494 0.66996187 4.4069688e-39
0.44455749 0.24662484 0.66885674 4.4069688e-39
0.44605565 0.19456197 0.67560667 4.4069688e-39
0.45070729 0.19217664 0.67550397 4.4069688e-39
0.45791009 0.19289649 0.67267573 4.4069688e-39
0.43983012 0.20115374 0.67578793 4.4069688e-39
0.44254109 0.19754137 0.6752134 4.4069688e-39
0.43640885 0.20657822 0.67560267 4.4069688e-39
0.43185845 0.21354885 0.67542744 4.4069688e-39
0.43408236 0.21026064 0.67554629 4.4069688e-39
0.42650896 0.22207654 0.67762011 4.4069688e-39
0.42815313 0.21963179 0.67503572 4.4069688e-39
0.42628884 0.22733967 0.67507273 4.4069688e-39
0.42608786 0.23157938 0.67564249 4.4069688e-39
0.43004581 0.23521051 0.67563808 4.4069688e-39
0.4376888 0.24118318 0.67488128 4.4069688e-39
0.44177103 0.24414276 0.67881882 4.4069688e-39
0.44374347 0.24568313 0.6728974 4.4069688e-39
0.44590536 0.19415234 0.68294287 4.4069688e-39
0.45008558 0.19164363 0.6849097 4.4069688e-39
0.43987507 0.20152546 0.68268877 4.4069688e-39
0.44261166 0.19791031 0.68274546 4.4069688e-39
0.43676066 0.20648378 0.68242741 4.4069688e-39
0.43186483 0.21392113 0.68227285 4.4069688e-39
0.43446285 0.2103298 0.68424559 4.4069688e-39
0.42634636 0.22270866 0.68271339 4.4069688e-39
0.42824373 0.21958397 0.68225741 4.4069688e-39
0.42565525 0.22733808 0.68223691 4.4069688e-39
0.42717677 0.23041546 0.68317378 4.4069688e-39
0.42884141 0.23362902 0.68287873 4.4069688e-39
0.43284544 0.23817059 0.68560952 4.4069688e-39
0.44387525 0.24565572 0.68068796 4.4069688e-39
0.44912538 0.24657439 0.68245411 4.4069688e-39
0.44632912 0.19498727 0.68934262 4.4069688e-39
0.45113978 0.19157238 0.68946838 4.4069688e-39
0.45536375 0.18983032 0.69116294 4.4069688e-39
0.44012478 0.2015353 0.68942261 4.4069688e-39
0.44314948 0.19795409 0.68897235 4.4069688e-39
0.43680805 0.20657369 0.68928915 4.4069688e-39
0.43175405 0.21358997 0.68952805 4.4069688e-39
0.42626557 0.22295332 0.68920982 4.4069688e-39
0.42812893 0.21920337 0.68907344 4.4069688e-39
0.42544416 0.22653161 0.68977058 4.4069688e-39
0.42723462 0.23063886 0.6896947 4.4069688e-39
0.42935273 0.23423576 0.6899125 4.4069688e-39
0.4370881 0.24120198 0.68914247 4.4069688e-39
0.44590658 0.24657255 0.68923938 4.4069688e-39
0.44491836 0.19448213 0.69686645 4.4069688e-39
0.4519957 0.19135512 0.69514555 4.4069688e-39
0.43974766 0.20076324 0.69653147 4.4069688e-39
0.44243327 0.19731441 0.69609892 4.4069688e-39
0.43383598 0.20973322 0.69576013 4.4069688e-39
0.43638936 0.20578961 0.69678706 4.4069688e-39
0.43083081 0.21355827 0.69660825 4.4069688e-39
0.42592353 0.22131933 0.69682109 4.4069688e-39
0.42788106 0.21787135 0.69594049 4.4069688e-39
0.42507103 0.22737004 0.6968742 4.4069688e-39
0.42928204 0.23450232 0.69674873 4.4069688e-39
0.43345881 0.23836593 0.69636869 4.4069688e-39
0.43766895 0.24124976 0.69687158 4.4069688e-39
0.44244519 0.24426571 0.69736862 4.4069688e-39
0.44485953 0.19283824 0.70344359 4.4069688e-39
0.45144448 0.18964587 0.70393533 4.4069688e-39
0.45593682 0.18925358 0.70562106 4.4069688e-39
0.43882051 0.20032862 0.70366871 4.4069688e-39
0.44137698 0.19686934 0.70291686 4.4069688e-39
0.43310124 0.20898107 0.70288563 4.4069688e-39
0.43548864 0.20532203 0.70389724 4.4069688e-39
0.42958319 0.21375686 0.70382112 4.4069688e-39
0.42532188 0.22088797 0.70391965 4.4069688e-39
0.42743379 0.21722673 0.70237482 4.4069688e-39
0.42540967 0.22771801 0.70359927 4.4069688e-39
0.42673665 0.23124894 0.70094573 4.4069688e-39
0.42882854 0.2341225 0.70375961 4.4069688e-39
0.43611974 0.24011543 0.70108986 4.4069688e-39
0.44383097 0.19287722 0.71046436 4.4069688e-39
0.45140404 0.18980815 0.71076804 4.4069688e-39
0.45607081 0.18962161 0.712946 4.4069688e-39
0.43878949 0.1996005 0.71074706 4.4069688e-39
0.44109285 0.19632022 0.70845127 4.4069688e-39
0.43275005 0.20828973 0.71074849 4.4069688e-39
0.43523222 0.20467956 0.71099544 4.4069688e-39
0.42669189 0.21647613 0.71377307 4.4069688e-39
0.42955843 0.21282575 0.71055937 4.4069688e-39
0.44163075 0.21651009 0.70945799 4.4069688e-39
0.42560664 0.22065237 0.71065551 4.4069688e-39
0.42726606 0.21763773 0.70777047 4.4069688e-39
0.42520267 0.22720751 0.71074241 4.4069688e-39
0.42918807 0.23428428 0.71100152 4.4069688e-39
0.43819973 0.24152021 0.7104969 4.4069688e-39
0.44523454 0.1932518 0.71704108 4.4069688e-39
0.45106348 0.19096921 0.71871191 4.4069688e-39
0.45899022 0.19209155 0.71848261 4.4069688e-39
0.43898174 0.20060271 0.71734124 4.4069688e-39
0.44209883 0.19750279 0.71884608 4.4069688e-39
0.46570784 0.19706686 0.72085798 4.4069688e-39
0.47082075 0.20219478 0.7207675 4.4069688e-39
0.43304613 0.20893803 0.71739727 4.4069688e-39
0.43568569 0.20572722 0.71821803 4.4069688e-39
0.47384223 0.20560561 0.72048861 4.4069688e-39
0.43012708 0.21350545 0.71781158 4.4069688e-39
0.43993556 0.21147239 0.71664518 4.4069688e-39
0.42572847 0.22087228 0.71756053 4.4069688e-39
0.42784685 0.2180455 0.71943814 4.4069688e-39
0.42564565 0.2261699 0.71671951 4.4069688e-39
0.42801049 0.22947772 0.71792549 4.4069688e-39
0.43071595 0.23403732 0.71610236 4.4069688e-39
0.4348098 0.23765278 0.71959782 4.4069688e-39
0.43774065 0.24029404 0.71707189 4.4069688e-39
0.44326982 0.24350747 0.71857911 4.4069688e-39
0.44665262 0.24589711 0.71858364 4.4069688e-39
0.44642249 0.19501309 0.72263747 4.4069688e-39
0.45176005 0.19359212 0.72285581 4.4069688e-39
0.4575927 0.19396524 0.72220445 4.4069688e-39
0.46218133 0.19503252 0.72113228 4.4069688e-39
0.44007373 0.20193739 0.72170812 4.4069688e-39
0.44463336 0.19957411 0.72432709 4.4069688e-39
0.45136607 0.19932149 0.72579193 4.4069688e-39
0.45815679 0.19941726 0.72485363 4.4069688e-39
0.46489134 0.20005944 0.72319764 4.4069688e-39
0.43825954 0.20715471 0.72349364 4.4069688e-39
0.44402209 0.20633735 0.72650433 4.4069688e-39
0.45118806 0.20648254 0.72729647 4.4069688e-39
0.45827609 0.20620112 0.72725552 4.4069688e-39
0.46509376 0.2068454 0.72620505 4.4069688e-39
0.47147566 0.20670071 0.72199672 4.4069688e-39
0.43261385 0.21405526 0.72284675 4.4069688e-39
0.43759713 0.21354546 0.72555774 4.4069688e-39
0.44437864 0.21314132 0.72745985 4.4069688e-39
0.45127428 0.211165 0.72785825 4.4069688e-39
0.45752782 0.21000561 0.72798866 4.4069688e-39
0.46589914 0.21314569 0.72719812 4.4069688e-39
0.47132176 0.21411385 0.72422826 4.4069688e-39
0.42658526 0.22261325 0.72145742 4.4069688e-39
0.43053672 0.22030887 0.72421885 4.4069688e-39
0.43731797 0.22030911 0.72679937 4.4069688e-39
0.44252101 0.22044574 0.72777158 4.4069688e-39
0.46037376 0.22268645 0.72785228 4.4069688e-39
0.46534893 0.22042076 0.7265324 4.4069688e-39
0.4705255 0.21946776 0.72355711 4.4069688e-39
0.42658991 0.22534519 0.72144997 4.4069688e-39
0.43044037 0.2275528 0.72422278 4.4069688e-39
0.43732548 0.22736771 0.72659743 4.4069688e-39
0.44358531 0.22822791 0.72782886 4.4069688e-39
0.45271358 0.22864988 0.72783822 4.4069688e-39
0.45841107 0.22769152 0.72721261 4.4069688e-39
0.46315116 0.22690733 0.72557127 4.4069688e-39
0.43192795 0.23306412 0.72289634 4.4069688e-39
0.43771267 0.23459001 0.72461283 4.4069688e-39
0.44482586 0.23440211 0.72752333 4.4069688e-39
0.4515886 0.23420656 0.72789574 4.4069688e-39
0.45847642 0.23386641 0.72568226 4.4069688e-39
0.44000319 0.23906541 0.72263956 4.4069688e-39
0.44476032 0.24065872 0.72443867 4.4069688e-39
0.45050895 0.2404543 0.72599232 4.4069688e-39
0.45636532 0.23832607 0.72483999 4.4069688e-39
0.46082208 0.20919086 0.72800332 4.4069688e-39
0.47237587 0.20611221 0.73113871 4.4069688e-39
0.44714332 0.21597356 0.72807437 4.4069688e-39
0.4519982 0.21462646 0.72860283 4.4069688e-39
0.45818314 0.21357512 0.7282418 4.4069688e-39
0.46239898 0.21436557 0.7281242 4.4069688e-39
0.44608238 0.2205539 0.72822815 4.4069688e-39
0.45141384 0.22046539 0.72850394 4.4069688e-39
0.45777497 0.22018409 0.72834307 4.4069688e-39
0.46246356 0.21860634 0.7280302 4.4069688e-39
0.44666716 0.22620077 0.72808361 4.4069688e-39
0.45084319 0.22636104 0.72819883 4.4069688e-39
0.45585492 0.22504987 0.72803086 4.4069688e-39
0.45165539 0.23416506 0.72810769 4.4069688e-39
0.45890352 0.20538835 0.7359435 4.4069688e-39
0.44523442 -0.039235413 0.6227355 2.1075392e-38
0.43997604 -0.064082794 0.62909937 2.1075392e-38
0.437783 -0.060961515 0.62863618 2.1075392e-38
0.4376446 -0.045238543 0.62888134 2.1075392e-38
0.4409796 -0.041776657 0.62732613 2.1075392e-38
0.44406697 -0.039371964 0.62624478 2.1075392e-38
0.4482168 -0.036196731 0.6262449 2.1075392e-38
0.45185626 -0.033305869 0.62717861 2.1075392e-38
0.4569149 -0.029809434 0.6257211 2.1075392e-38
0.46054491 -0.02607156 0.62729639 2.1075392e-38
0.46641931 -0.023279563 0.62695456 2.1075392e-38
0.47256732 -0.019621979 0.62822223 2.1075392e-38
0.44670573 -0.071273662 0.63366765 2.1075392e-38
0.43932462 -0.06467066 0.63409477 2.1075392e-38
0.44273052 -0.068401113 0.63435447 2.1075392e-38
0.43672174 -0.059426863 0.63292623 2.1075392e-38
0.43475205 -0.052604668 0.63417828 2.1075392e-38
0.43744031 -0.045944892 0.6322993 2.1075392e-38
0.44011009 -0.041418206 0.63319314 2.1075392e-38
0.44486514 -0.037710592 0.6336478 2.1075392e-38
0.45217574 -0.033020817 0.63381273 2.1075392e-38
0.457073 -0.02952536 0.63263106 2.1075392e-38
0.46061134 -0.026978076 0.63380158 2.1075392e-38
0.46498072 -0.023794839 0.63441968 2.1075392e-38
0.4723092 -0.019598955 0.63319224 2.1075392e-38
0.47636449 -0.017186321 0.63620919 2.1075392e-38
0.43724009 -0.071601346 0.63900828 2.1075392e-38
0.45021808 -0.072007172 0.6392898 2.1075392e-38
0.43951887 -0.064984106 0.63975114 2.1075392e-38
0.44309649 -0.068934701 0.64085561 2.1075392e-38
0.43595034 -0.059267808 0.64050114 2.1075392e-38
0.43394256 -0.052351259 0.64261049 2.1075392e-38
0.43465364 -0.052124914 0.64057857 2.1075392e-38
0.43730444 -0.045218021 0.64075202 2.1075392e-38
0.44017318 -0.041050494 0.64023685 2.1075392e-38
0.44411492 -0.038279749 0.64052039 2.1075392e-38
0.44851375 -0.035552368 0.64005822 2.1075392e-38
0.45291877 -0.032541834 0.64106858 2.1075392e-38
0.45761552 -0.029229479 0.64022893 2.1075392e-38
0.46056354 -0.027068481 0.64095265 2.1075392e-38
0.46597317 -0.023312919 0.64059174 2.1075392e-38
0.47285947 -0.019078756 0.64018154 2.1075392e-38
0.47815552 -0.017160533 0.63894725 2.1075392e-38
0.43945152 -0.065367684 0.64770967 2.1075392e-38
0.44273493 -0.06839662 0.64431137 2.1075392e-38
0.43583319 -0.059285723 0.64702266 2.1075392e-38
0.43375531 -0.05405096 0.648031 2.1075392e-38
0.43519974 -0.05145064 0.64654344 2.1075392e-38
0.43888593 -0.044755001 0.64624953 2.1075392e-38
0.44089484 -0.040858343 0.6446569 2.1075392e-38
0.44456086 -0.03852373 0.64745873 2.1075392e-38
0.44935355 -0.03526007 0.64708102 2.1075392e-38
0.4523966 -0.033156976 0.64755774 2.1075392e-38
0.45739037 -0.029655304 0.64761251 2.1075392e-38
0.46123314 -0.026860157 0.64683968 2.1075392e-38
0.46551555 -0.024264738 0.64736885 2.1075392e-38
0.4692277 -0.021119108 0.64771175 2.1075392e-38
0.47339863 -0.018991161 0.64793825 2.1075392e-38
0.47859159 -0.016846299 0.649351 2.1075392e-38
0.44507173 -0.071292974 0.65707374 2.1075392e-38
0.43903211 -0.065536208 0.65465933 2.1075392e-38
0.44175982 -0.069022864 0.6543678 2.1075392e-38
0.43530825 -0.059125867 0.65455323 2.1075392e-38
0.43398404 -0.051097091 0.65100849 2.1075392e-38
0.43452486 -0.053083114 0.65481842 2.1075392e-38
0.43615237 -0.045763064 0.65493619 2.1075392e-38
0.43998826 -0.041747946 0.65460867 2.1075392e-38
0.44374999 -0.039255768 0.65416807 2.1075392e-38
0.44869527 -0.036015078 0.65375501 2.1075392e-38
0.45224336 -0.033585947 0.65416378 2.1075392e-38
0.45747489 -0.029785965 0.65459168 2.1075392e-38
0.46109644 -0.027129347 0.65480775 2.1075392e-38
0.46542025 -0.023944044 0.65385365 2.1075392e-38
0.47278666 -0.020402994 0.6534375 2.1075392e-38
0.47910541 -0.018679196 0.65363842 2.1075392e-38
0.44603896 -0.072047107 0.66094989 2.1075392e-38
0.44885993 -0.073961705 0.66445917 2.1075392e-38
0.43899927 -0.065729707 0.66112858 2.1075392e-38
0.44183308 -0.069238693 0.66114533 2.1075392e-38
0.43527532 -0.059775285 0.66210556 2.1075392e-38
0.43393058 -0.049674988 0.66220856 2.1075392e-38
0.43435213 -0.052793432 0.66123128 2.1075392e-38
0.43682289 -0.045569625 0.66111875 2.1075392e-38
0.44063318 -0.041397575 0.66179526 2.1075392e-38
0.44421589 -0.038706038 0.66125935 2.1075392e-38
0.44842181 -0.035945136 0.66245574 2.1075392e-38
0.45247248 -0.033268016 0.66123652 2.1075392e-38
0.4575471 -0.029631268 0.66221112 2.1075392e-38
0.46040666 -0.02619409 0.66200042 2.1075392e-38
0.46483633 -0.024182299 0.66161495 2.1075392e-38
0.47160032 -0.020134997 0.66397417 2.1075392e-38
0.4815625 -0.018089611 0.66106147 2.1075392e-38
0.44441289 -0.071162626 0.66909498 2.1075392e-38
0.44945469 -0.073653117 0.6688962 2.1075392e-38
0.4384664 -0.065488353 0.66862869 2.1075392e-38
0.44140732 -0.068724677 0.66731936 2.1075392e-38
0.43496084 -0.059438094 0.66865516 2.1075392e-38
0.43377313 -0.052810218 0.66794795 2.1075392e-38
0.43451068 -0.050737306 0.66896468 2.1075392e-38
0.43732885 -0.045179229 0.66846031 2.1075392e-38
0.44405815 -0.039058495 0.66833466 2.1075392e-38
0.4491643 -0.035645414 0.66937071 2.1075392e-38
0.45281154 -0.033146895 0.66814351 2.1075392e-38
0.4572798 -0.029990828 0.66832334 2.1075392e-38
0.4608576 -0.027413363 0.66930562 2.1075392e-38
0.4654212 -0.023931189 0.66877413 2.1075392e-38
0.47250584 -0.019766357 0.66837335 2.1075392e-38
0.47856051 -0.018943112 0.66836309 2.1075392e-38
0.48363599 -0.019421123 0.66860294 2.1075392e-38
0.44608411 -0.071355209 0.67574799 2.1075392e-38
0.45112848 -0.073985845 0.6755622 2.1075392e-38
0.43876401 -0.066002831 0.67550468 2.1075392e-38
0.4425703 -0.069683351 0.67482662 2.1075392e-38
0.43549788 -0.059131183 0.67456651 2.1075392e-38
0.43385941 -0.052834183 0.67591608 2.1075392e-38
0.43421221 -0.052259844 0.67487717 2.1075392e-38
0.43722522 -0.045436326 0.67547637 2.1075392e-38
0.44061232 -0.041956 0.67806137 2.1075392e-38
0.44467846 -0.03872614 0.67538476 2.1075392e-38
0.44978619 -0.035333902 0.67639703 2.1075392e-38
0.4527919 -0.033348192 0.67554265 2.1075392e-38
0.45738173 -0.029953275 0.67484897 2.1075392e-38
0.46103072 -0.027155343 0.6757015 2.1075392e-38
0.46544164 -0.024108801 0.67566532 2.1075392e-38
0.46910042 -0.021580551 0.67631435 2.1075392e-38
0.47284597 -0.02030972 0.67449367 2.1075392e-38
0.44491452 -0.070677429 0.68296504 2.1075392e-38
0.45173058 -0.073888481 0.68034983 2.1075392e-38
0.45661825 -0.074690789 0.68240619 2.1075392e-38
0.43859035 -0.065383181 0.68205833 2.1075392e-38
0.44198015 -0.068928666 0.68377566 2.1075392e-38
0.43357235 -0.056900091 0.68307477 2.1075392e-38
0.43528545 -0.060398661 0.68299991 2.1075392e-38
0.43338841 -0.053910546 0.68238348 2.1075392e-38
0.43471786 -0.050616842 0.68249458 2.1075392e-38
0.43733823 -0.045931906 0.6827628 2.1075392e-38
0.44078055 -0.041688304 0.6830923 2.1075392e-38
0.44477811 -0.038811889 0.68213236 2.1075392e-38
0.44921777 -0.035720073 0.68261564 2.1075392e-38
0.45304608 -0.033006161 0.68307441 2.1075392e-38
0.45768106 -0.029638942 0.68230736 2.1075392e-38
0.46146116 -0.026928551 0.68162203 2.1075392e-38
0.46565425 -0.024128405 0.68296665 2.1075392e-38
0.47044015 -0.021420345 0.68213123 2.1075392e-38
0.47362641 -0.020010538 0.68379545 2.1075392e-38
0.4763855 -0.018646728 0.68352479 2.1075392e-38
0.44563115 -0.071525387 0.69098347 2.1075392e-38
0.44886911 -0.073129684 0.69232017 2.1075392e-38
0.43904346 -0.065393671 0.68943715 2.1075392e-38
0.44305208 -0.069145881 0.69121736 2.1075392e-38
0.43380913 -0.056580856 0.68796659 2.1075392e-38
0.43588364 -0.059885953 0.68970042 2.1075392e-38
0.43355742 -0.054322969 0.68969345 2.1075392e-38
0.43546778 -0.050828874 0.68890887 2.1075392e-38
0.43856645 -0.045454603 0.68934089 2.1075392e-38
0.44384512 -0.0393482 0.68994421 2.1075392e-38
0.44868347 -0.036107376 0.68871135 2.1075392e-38
0.45244741 -0.033383172 0.6896888 2.1075392e-38
0.45754045 -0.029709153 0.68957943 2.1075392e-38
0.4613286 -0.027107069 0.68878937 2.1075392e-38
0.46597585 -0.024166394 0.68975514 2.1075392e-38
0.47146505 -0.021232275 0.68837166 2.1075392e-38
0.47383484 -0.019800685 0.68995607 2.1075392e-38
0.47734851 -0.018466534 0.68984175 2.1075392e-38
0.44702277 -0.071196057 0.6965313 2.1075392e-38
0.45107254 -0.073305473 0.69691473 2.1075392e-38
0.45907143 -0.070886195 0.69699669 2.1075392e-38
0.43932098 -0.064864278 0.69666582 2.1075392e-38
0.4422546 -0.068159975 0.69741374 2.1075392e-38
0.46307588 -0.068373993 0.69526821 2.1075392e-38
0.4361603 -0.059192102 0.69641733 2.1075392e-38
0.43381092 -0.054019529 0.6945039 2.1075392e-38
0.43472186 -0.05245984 0.69678944 2.1075392e-38
0.43852007 -0.045122758 0.69702214 2.1075392e-38
0.44475609 -0.039211459 0.69656503 2.1075392e-38
0.44917512 -0.036191758 0.69699711 2.1075392e-38
0.45258886 -0.033618219 0.69614565 2.1075392e-38
0.45772767 -0.030142695 0.69702083 2.1075392e-38
0.46118763 -0.027748138 0.69630826 2.1075392e-38
0.4654406 -0.024686553 0.69622654 2.1075392e-38
0.46900308 -0.022214748 0.69849807 2.1075392e-38
0.47295499 -0.020266667 0.69640493 2.1075392e-38
0.45225859 -0.071615286 0.70284039 2.1075392e-38
0.45653495 -0.07217823 0.70344043 2.1075392e-38
0.43960208 -0.063943818 0.70165509 2.1075392e-38
0.44412017 -0.06720908 0.7039656 2.1075392e-38
0.44953954 -0.069181621 0.70662796 2.1075392e-38
0.45612353 -0.069749281 0.70659953 2.1075392e-38
0.43834111 -0.059745163 0.70442432 2.1075392e-38
0.47264701 -0.061935265 0.70445323 2.1075392e-38
0.47921264 -0.057231352 0.70613372 2.1075392e-38
0.43670821 -0.053073209 0.70352519 2.1075392e-38
0.4884848 -0.049814034 0.70655006 2.1075392e-38
0.43854529 -0.046320956 0.703471 2.1075392e-38
0.44221592 -0.042922881 0.70470375 2.1075392e-38
0.49204299 -0.047918648 0.70524359 2.1075392e-38
0.44562948 -0.039826419 0.70338845 2.1075392e-38
0.4509199 -0.036648549 0.70419544 2.1075392e-38
0.4538734 -0.033999 0.70220274 2.1075392e-38
0.45854583 -0.031442318 0.70404834 2.1075392e-38
0.46321294 -0.028862087 0.70593238 2.1075392e-38
0.46580946 -0.025874488 0.70344138 2.1075392e-38
0.47174987 -0.022699773 0.70452565 2.1075392e-38
0.48009729 -0.022094961 0.70585454 2.1075392e-38
0.48508823 -0.02329977 0.70640826 2.1075392e-38
0.47413114 -0.020828644 0.70226538 2.1075392e-38
0.47780979 -0.020257546 0.70189959 2.1075392e-38
0.44688925 -0.075470418 0.70892161 2.1075392e-38
0.44594765 -0.064688049 0.70814258 2.1075392e-38
0.45099097 -0.065831892 0.71000153 2.1075392e-38
0.45818296 -0.065972209 0.70956367 2.1075392e-38
0.46428928 -0.064603418 0.70808953 2.1075392e-38
0.43314248 -0.05602017 0.7072348 2.1075392e-38
0.44028032 -0.057835948 0.70720237 2.1075392e-38
0.44411668 -0.05963812 0.70992905 2.1075392e-38
0.45123324 -0.059418302 0.71317786 2.1075392e-38
0.45851216 -0.05945139 0.71278673 2.1075392e-38
0.46519887 -0.059406243 0.71096581 2.1075392e-38
0.47168377 -0.05804731 0.7096352 2.1075392e-38
0.4399623 -0.052021809 0.707959 2.1075392e-38
0.44448319 -0.053085059 0.7114141 2.1075392e-38
0.45090613 -0.051958892 0.71348494 2.1075392e-38
0.46045357 -0.055350527 0.71382248 2.1075392e-38
0.46533433 -0.054154895 0.71352196 2.1075392e-38
0.47297484 -0.052443653 0.712542 2.1075392e-38
0.47918162 -0.052225769 0.71097457 2.1075392e-38
0.48392308 -0.051533282 0.70932084 2.1075392e-38
0.4397321 -0.048290703 0.70806968 2.1075392e-38
0.44487873 -0.045888405 0.70966989 2.1075392e-38
0.45125809 -0.044930186 0.71215719 2.1075392e-38
0.45761973 -0.043312449 0.71341467 2.1075392e-38
0.4620463 -0.042667501 0.7139293 2.1075392e-38
0.47554076 -0.047801904 0.7139411 2.1075392e-38
0.48033181 -0.045838226 0.71363926 2.1075392e-38
0.48542231 -0.04527431 0.71214396 2.1075392e-38
0.49132276 -0.044803172 0.70750731 2.1075392e-38
0.44734406 -0.040729526 0.70750958 2.1075392e-38
0.45213684 -0.039039247 0.70906788 2.1075392e-38
0.45841134 -0.03828796 0.71114266 2.1075392e-38
0.46511123 -0.038424853 0.71292835 2.1075392e-38
0.47160473 -0.037396789 0.71359259 2.1075392e-38
0.4802534 -0.03654686 0.71386868 2.1075392e-38
0.48678657 -0.03841361 0.71268338 2.1075392e-38
0.49278656 -0.039659783 0.70917106 2.1075392e-38
0.46018797 -0.033411302 0.70860541 2.1075392e-38
0.46559399 -0.031692579 0.71037662 2.1075392e-38
0.4722189 -0.03168476 0.71272945 2.1075392e-38
0.47986737 -0.031360876 0.71338552 2.1075392e-38
0.486027 -0.031147331 0.71153176 2.1075392e-38
0.49061489 -0.03438266 0.70974702 2.1075392e-38
0.46747795 -0.027162835 0.70834512 2.1075392e-38
0.47270617 -0.026102528 0.70945585 2.1075392e-38
0.47905529 -0.025461409 0.71018708 2.1075392e-38
0.48433065 -0.026301971 0.70956773 2.1075392e-38
0.46598879 -0.020649793 0.70721072 2.1075392e-38
0.45356721 -0.0562317 0.71424788 2.1075392e-38
0.45527279 -0.056364261 0.71415293 2.1075392e-38
0.45359042 -0.053181004 0.71421361 2.1075392e-38
0.45810908 -0.051899001 0.71450275 2.1075392e-38
0.46535414 -0.050863437 0.71429712 2.1075392e-38
0.47032434 -0.050319254 0.71410662 2.1075392e-38
0.45891413 -0.046432417 0.71442574 2.1075392e-38
0.46583328 -0.045714349 0.7145192 2.1075392e-38
0.47263294 -0.045525625 0.71418023 2.1075392e-38
0.47813952 -0.043139394 0.71431327 2.1075392e-38
0.46774411 -0.04157012 0.71417701 2.1075392e-38
0.47310266 -0.039932329 0.71410835 2.1075392e-38
0.47964117 -0.039021846 0.71421766 2.1075392e-38
0.47538456 -0.034110382 0.71416706 2.1075392e-38
0.47715217 -0.033485431 0.71408594 2.1075392e-38
0.60466272 0.26201051 0.61104393 8.0200557e-39
0.63703609 0.22294246 0.62025076 8.0200557e-39
0.62898892 0.22938995 0.61998445 8.0200557e-39
0.63298106 0.2262136 0.62023437 8.0200557e-39
0.6227634 0.23660651 0.61986911 8.0200557e-39
0.62544805 0.23314364 0.62012661 8.0200557e-39
0.619192 0.2413414 0.61935455 8.0200557e-39
0.61313564 0.24856696 0.62006676 8.0200557e-39
0.60674077 0.25650036 0.61980349 8.0200557e-39
0.60972047 0.25308514 0.61922866 8.0200557e-39
0.60070235 0.26346979 0.62101412 8.0200557e-39
0.60337567 0.26073349 0.61977726 8.0200557e-39
0.59395397 0.27264154 0.62202322 8.0200557e-39
0.59724915 0.26900959 0.61925906 8.0200557e-39
0.59205902 0.27657607 0.61925256 8.0200557e-39
0.58629471 0.28427556 0.62006384 8.0200557e-39
0.58884609 0.28138998 0.618536 8.0200557e-39
0.57997549 0.29224133 0.62037218 8.0200557e-39
0.58297175 0.2888231 0.61937922 8.0200557e-39
0.5762108 0.29712567 0.62009877 8.0200557e-39
0.63442928 0.22259307 0.62618375 8.0200557e-39
0.63706344 0.22041096 0.62573493 8.0200557e-39
0.6275835 0.22887151 0.62700582 8.0200557e-39
0.63137382 0.22520782 0.62716359 8.0200557e-39
0.62141132 0.23646133 0.62625122 8.0200557e-39
0.62372762 0.23336895 0.62612772 8.0200557e-39
0.61518109 0.24474692 0.6266067 8.0200557e-39
0.61797881 0.24108605 0.6264044 8.0200557e-39
0.61193067 0.24891162 0.62679917 8.0200557e-39
0.60632294 0.25610942 0.62679583 8.0200557e-39
0.60922068 0.25247717 0.62586737 8.0200557e-39
0.59989381 0.26415887 0.62676299 8.0200557e-39
0.6028226 0.26049277 0.62658405 8.0200557e-39
0.59434479 0.27180487 0.6270473 8.0200557e-39
0.5965637 0.2686477 0.62609982 8.0200557e-39
0.59113604 0.27642423 0.62626415 8.0200557e-39
0.58535874 0.2842198 0.62650323 8.0200557e-39
0.58823049 0.28058806 0.6281383 8.0200557e-39
0.5791263 0.29196432 0.62652993 8.0200557e-39
0.58194083 0.28843522 0.62677652 8.0200557e-39
0.57266116 0.29987574 0.62647527 8.0200557e-39
0.57566142 0.29626235 0.62655753 8.0200557e-39
0.63211519 0.22200875 0.63400179 8.0200557e-39
0.61759436 0.22519331 0.630732 8.0200557e-39
0.62759316 0.22763088 0.63369 8.0200557e-39
0.62104505 0.23599386 0.63345546 8.0200557e-39
0.6239301 0.23211439 0.63353926 8.0200557e-39
0.61535746 0.24404314 0.63391089 8.0200557e-39
0.61778903 0.2405825 0.63384604 8.0200557e-39
0.61204547 0.24848965 0.63366461 8.0200557e-39
0.60668731 0.25584689 0.63381779 8.0200557e-39
0.60915089 0.2525779 0.63553804 8.0200557e-39
0.60064608 0.26378667 0.63334316 8.0200557e-39
0.60307121 0.26062027 0.63347489 8.0200557e-39
0.59418577 0.27243602 0.63274735 8.0200557e-39
0.59698516 0.26863959 0.63324779 8.0200557e-39
0.5912872 0.27655119 0.6335662 8.0200557e-39
0.58578265 0.28382447 0.6336326 8.0200557e-39
0.58837843 0.28045943 0.63343608 8.0200557e-39
0.57934016 0.29178634 0.63328433 8.0200557e-39
0.58224422 0.2882131 0.63345021 8.0200557e-39
0.57272786 0.29977056 0.63355249 8.0200557e-39
0.57574856 0.2962423 0.63363504 8.0200557e-39
0.62995464 0.22394674 0.64245754 8.0200557e-39
0.63344312 0.22116652 0.64023632 8.0200557e-39
0.63828719 0.21989135 0.64326835 8.0200557e-39
0.62717772 0.2274913 0.64061242 8.0200557e-39
0.62157345 0.2358658 0.6404829 8.0200557e-39
0.62383068 0.23249722 0.6412403 8.0200557e-39
0.615628 0.24424131 0.64102703 8.0200557e-39
0.61809713 0.24073133 0.64020109 8.0200557e-39
0.61240262 0.24864657 0.64057964 8.0200557e-39
0.60677934 0.25610879 0.6407612 8.0200557e-39
0.61066896 0.2537162 0.6411075 8.0200557e-39
0.60042596 0.26441097 0.6404137 8.0200557e-39
0.60317457 0.26077533 0.64109957 8.0200557e-39
0.59465271 0.2722694 0.64030725 8.0200557e-39
0.59722519 0.26876721 0.64064008 8.0200557e-39
0.59153283 0.27643737 0.64024413 8.0200557e-39
0.58573896 0.28417096 0.64049429 8.0200557e-39
0.58844233 0.28059813 0.64015597 8.0200557e-39
0.57954764 0.29198012 0.63997746 8.0200557e-39
0.58222526 0.28866276 0.64086789 8.0200557e-39
0.57335031 0.299777 0.64022827 8.0200557e-39
0.57618958 0.29627377 0.64077514 8.0200557e-39
0.63391143 0.22273166 0.64710754 8.0200557e-39
0.64031059 0.22111809 0.6478337 8.0200557e-39
0.62839329 0.22860885 0.64673448 8.0200557e-39
0.63152468 0.22557892 0.64822334 8.0200557e-39
0.62198383 0.23691441 0.64713717 8.0200557e-39
0.62529057 0.23314293 0.64753479 8.0200557e-39
0.61866671 0.24156748 0.64789206 8.0200557e-39
0.61342973 0.24846035 0.64735633 8.0200557e-39
0.61659467 0.2462891 0.6505537 8.0200557e-39
0.62503523 0.24744663 0.64891487 8.0200557e-39
0.60734844 0.25665009 0.64752483 8.0200557e-39
0.61049497 0.25326461 0.64886868 8.0200557e-39
0.60107017 0.26490507 0.64744675 8.0200557e-39
0.60395139 0.26172134 0.64844811 8.0200557e-39
0.59796351 0.26961127 0.64786792 8.0200557e-39
0.59231305 0.27667508 0.64693123 8.0200557e-39
0.59537107 0.27356631 0.64925325 8.0200557e-39
0.58641785 0.28459162 0.64711529 8.0200557e-39
0.5893721 0.28125167 0.64857775 8.0200557e-39
0.58002084 0.29271504 0.64681625 8.0200557e-39
0.58298737 0.28941587 0.64822698 8.0200557e-39
0.57674181 0.2974999 0.64805263 8.0200557e-39
0.64043891 0.22322018 0.65272874 8.0200557e-39
0.62907147 0.23039939 0.65239841 8.0200557e-39
0.63354057 0.22762513 0.653238 8.0200557e-39
0.6403845 0.22793254 0.65526748 8.0200557e-39
0.64719927 0.22789785 0.65503955 8.0200557e-39
0.65144962 0.22902466 0.65456921 8.0200557e-39
0.62694311 0.23502864 0.65328705 8.0200557e-39
0.63365418 0.2343722 0.65507573 8.0200557e-39
0.64080614 0.23488541 0.65625852 8.0200557e-39
0.64762425 0.23425455 0.65630782 8.0200557e-39
0.65387619 0.23486365 0.65636057 8.0200557e-39
0.66006374 0.23597872 0.65535611 8.0200557e-39
0.62109357 0.24240306 0.65317142 8.0200557e-39
0.62612861 0.24110325 0.654603 8.0200557e-39
0.6334219 0.24151695 0.65564156 8.0200557e-39
0.64057964 0.2417292 0.65652066 8.0200557e-39
0.6469872 0.24135828 0.65683407 8.0200557e-39
0.65444088 0.24153109 0.65749091 8.0200557e-39
0.66163474 0.24015151 0.65754193 8.0200557e-39
0.6685639 0.24167648 0.65429038 8.0200557e-39
0.61491627 0.25034571 0.65170509 8.0200557e-39
0.61918616 0.24874213 0.65366614 8.0200557e-39
0.6258716 0.2483308 0.65512067 8.0200557e-39
0.63341576 0.24840194 0.65564847 8.0200557e-39
0.64054984 0.24863921 0.65655524 8.0200557e-39
0.64741588 0.24829759 0.65678501 8.0200557e-39
0.65436685 0.2481844 0.65727389 8.0200557e-39
0.66062611 0.25006917 0.65773284 8.0200557e-39
0.66965079 0.24776077 0.65729475 8.0200557e-39
0.67343175 0.24909601 0.65627956 8.0200557e-39
0.61271352 0.25599945 0.65276408 8.0200557e-39
0.61927974 0.25524443 0.65450966 8.0200557e-39
0.62624425 0.25555348 0.65487242 8.0200557e-39
0.63356233 0.25534418 0.65547651 8.0200557e-39
0.64117259 0.25579256 0.65583581 8.0200557e-39
0.64776778 0.25518569 0.65614295 8.0200557e-39
0.65417773 0.25564721 0.65673649 8.0200557e-39
0.66113603 0.25570741 0.65678632 8.0200557e-39
0.66730177 0.25461113 0.65704495 8.0200557e-39
0.60628158 0.26316845 0.65232664 8.0200557e-39
0.6128161 0.26261753 0.6540513 8.0200557e-39
0.61987662 0.26241019 0.65454751 8.0200557e-39
0.62648171 0.26249915 0.65459085 8.0200557e-39
0.63292187 0.26249969 0.65490764 8.0200557e-39
0.64055109 0.26270658 0.65524042 8.0200557e-39
0.64795262 0.26221642 0.65593153 8.0200557e-39
0.65452963 0.26247931 0.65633953 8.0200557e-39
0.66149163 0.26260462 0.65586138 8.0200557e-39
0.66608953 0.25927472 0.65651226 8.0200557e-39
0.60022634 0.2706582 0.65238833 8.0200557e-39
0.60577816 0.2697449 0.65393078 8.0200557e-39
0.61273021 0.26931503 0.65448922 8.0200557e-39
0.61991423 0.26924565 0.65450257 8.0200557e-39
0.62665516 0.26942411 0.65438509 8.0200557e-39
0.63318378 0.26969883 0.65480304 8.0200557e-39
0.64045244 0.26959404 0.65535468 8.0200557e-39
0.64752114 0.26937997 0.65622264 8.0200557e-39
0.65447903 0.26945493 0.65639585 8.0200557e-39
0.66009378 0.26839066 0.65598112 8.0200557e-39
0.59384304 0.27787054 0.65206516 8.0200557e-39
0.59848577 0.27651423 0.65378118 8.0200557e-39
0.60539544 0.27647403 0.65494728 8.0200557e-39
0.6130622 0.2763401 0.65483993 8.0200557e-39
0.61952621 0.27626762 0.65476489 8.0200557e-39
