# .PCD v0.7 - Point Cloud Data file format
VERSION 0.7
FIELDS x y z rgb
SIZE 4 4 4 4
TYPE F F F F
COUNT 1 1 1 1
WIDTH 1026
HEIGHT 1
VIEWPOINT 0 0 0 1 0 0 0
POINTS 1026
DATA ascii
0.71865344 0.17218605 0.61000109 1.0786889e-38
0.7243101 0.17163892 0.61000109 1.0786889e-38
0.73122394 0.17143691 0.61000115 1.0786889e-38
0.73880321 0.171652 0.61000115 1.0786889e-38
0.74539989 0.17137331 0.61000127 1.0786889e-38
0.75230426 0.17138098 0.61000127 1.0786889e-38
0.75988752 0.17162877 0.61000144 1.0786889e-38
0.76692724 0.17163841 0.6100015 1.0786889e-38
0.77378863 0.17135461 0.6100015 1.0786889e-38
0.78051132 0.17161132 0.61000156 1.0786889e-38
0.78798217 0.17140119 0.61000156 1.0786889e-38
0.79475391 0.17148277 0.61000162 1.0786889e-38
0.80159223 0.17156425 0.61000162 1.0786889e-38
0.80927271 0.17135082 0.61000162 1.0786889e-38
0.81486821 0.17147128 0.61000174 1.0786889e-38
0.8218919 0.17155378 0.61000174 1.0786889e-38
0.82956964 0.17189991 0.61000186 1.0786889e-38
0.83553034 0.17145948 0.61000192 1.0786889e-38
0.84274709 0.17154302 0.61000198 1.0786889e-38
0.85063678 0.17189388 0.61000204 1.0786889e-38
0.85676289 0.17144734 0.61000204 1.0786889e-38
0.86449128 0.17114514 0.6100021 1.0786889e-38
0.33298612 0.17844205 0.60999864 1.0694693e-38
0.33981091 0.17836262 0.60999864 1.0694693e-38
0.34672627 0.17856181 0.60999864 1.0694693e-38
0.35361621 0.17863025 0.60999864 1.0694693e-38
0.36083603 0.17840403 0.6099987 1.0694693e-38
0.36809468 0.17846142 0.6099987 1.0694693e-38
0.37459493 0.17863521 0.6099987 1.0694693e-38
0.38123959 0.17852043 0.60999876 1.0694693e-38
0.38884306 0.17828673 0.60999876 1.0694693e-38
0.39549512 0.17857867 0.60999882 1.0694693e-38
0.40231264 0.17850024 0.60999876 1.0694693e-38
0.40955552 0.17832524 0.60999894 1.0694693e-38
0.41644666 0.17855369 0.60999894 1.0694693e-38
0.42368561 0.1786553 0.60999906 1.0694693e-38
0.43031862 0.17840476 0.609999 1.0786889e-38
0.43726453 0.17861284 0.60999906 1.0786889e-38
0.44493118 0.17855631 0.60999936 1.0786889e-38
0.45177928 0.17849615 0.6099993 1.0786889e-38
0.45821911 0.17848061 0.60999936 1.0786889e-38
0.46540275 0.17840387 0.60999936 1.0786889e-38
0.47205251 0.17857803 0.60999948 1.0786889e-38
0.47908944 0.17833303 0.60999954 1.0786889e-38
0.48649412 0.17845523 0.6099996 1.0786889e-38
0.4933283 0.17843902 0.6099996 1.0786889e-38
0.50101352 0.17855448 0.60999966 1.0786889e-38
0.50801653 0.17853889 0.60999966 1.0786889e-38
0.51483524 0.17860387 0.60999966 1.0786889e-38
0.52129704 0.17838837 0.60999972 1.0786889e-38
0.52892047 0.17854229 0.60999972 1.0786889e-38
0.53566837 0.17857695 0.60999984 1.0786889e-38
0.54243594 0.17840827 0.60999978 1.0786889e-38
0.54939109 0.1786461 0.61000001 1.0786889e-38
0.55631 0.17847589 0.61000001 1.0786889e-38
0.56342155 0.17871682 0.61000007 1.0786889e-38
0.5705573 0.17832831 0.61000001 1.0786889e-38
0.57777017 0.17878909 0.61000013 1.0786889e-38
0.58385861 0.17815131 0.61000019 1.0786889e-38
0.59139025 0.17873494 0.61000025 1.0786889e-38
0.59867704 0.17821828 0.61000019 1.0786889e-38
0.60529906 0.17867912 0.61000025 1.0786889e-38
0.61182088 0.17829323 0.61000043 1.0786889e-38
0.61951452 0.17862262 0.61000049 1.0786889e-38
0.62729448 0.17836334 0.61000049 1.0786889e-38
0.63403815 0.17856431 0.61000055 1.0786889e-38
0.64085078 0.17846726 0.61000055 1.0786889e-38
0.64773279 0.17837137 0.61000061 1.0786889e-38
0.6544739 0.17890538 0.61000061 1.0786889e-38
0.66171098 0.17817438 0.61000067 1.0786889e-38
0.66859281 0.17871296 0.61000067 1.0786889e-38
0.67619991 0.17824779 0.61000079 1.0786889e-38
0.68322945 0.1787935 0.61000079 1.0786889e-38
0.68932611 0.17855704 0.61000091 1.0786889e-38
0.69548029 0.17831886 0.61000085 1.0786889e-38
0.70270801 0.17887157 0.61000103 1.0786889e-38
0.71047002 0.17811431 0.61000103 1.0786889e-38
0.71785408 0.17867188 0.61000109 1.0786889e-38
0.7246781 0.17819114 0.61000109 1.0786889e-38
0.73096395 0.17847067 0.61000115 1.0786889e-38
0.73854065 0.1787217 0.61000121 1.0786889e-38
0.74539977 0.17811921 0.61000127 1.0786889e-38
0.7518177 0.17854677 0.61000139 1.0786889e-38
0.76040441 0.17837344 0.61000144 1.0786889e-38
0.76692736 0.17848462 0.61000144 1.0786889e-38
0.7735132 0.17859595 0.6100015 1.0786889e-38
0.78090876 0.17842174 0.61000156 1.0786889e-38
0.78770113 0.1787134 0.61000156 1.0786889e-38
0.79475385 0.17845863 0.61000162 1.0786889e-38
0.80213839 0.17850149 0.61000162 1.0786889e-38
0.80885988 0.1784953 0.61000162 1.0786889e-38
0.81486815 0.17854087 0.61000174 1.0786889e-38
0.82245278 0.17858468 0.61000186 1.0786889e-38
0.82935756 0.17857882 0.61000192 1.0786889e-38
0.83553028 0.17862533 0.61000186 1.0786889e-38
0.84332353 0.17867017 0.61000198 1.0786889e-38
0.85063678 0.17809635 0.61000204 1.0786889e-38
0.85676289 0.17871213 0.61000204 1.0786889e-38
0.86449128 0.17844598 0.6100021 1.0786889e-38
0.33298606 0.18533373 0.60999864 1.0694693e-38
0.33975804 0.1854407 0.60999864 1.0694693e-38
0.34672627 0.18554503 0.60999864 1.0694693e-38
0.35373399 0.18551309 0.6099987 1.0694693e-38
0.360836 0.18548112 0.6099987 1.0694693e-38
0.36803421 0.1854472 0.6099987 1.0694693e-38
0.37455639 0.18562807 0.6099987 1.0694693e-38
0.38111559 0.18559408 0.60999876 1.0694693e-38
0.38871768 0.1854108 0.60999876 1.0694693e-38
0.3957046 0.18531977 0.60999882 1.0694693e-38
0.40237734 0.18555592 0.60999876 1.0694693e-38
0.40943217 0.18555304 0.60999894 1.0694693e-38
0.41672167 0.18539406 0.60999894 1.0694693e-38
0.4235442 0.18560068 0.60999906 1.0694693e-38
0.43013829 0.1855838 0.609999 1.0694693e-38
0.43770292 0.18542205 0.60999906 1.0694693e-38
0.44478443 0.18563272 0.6099993 1.0786889e-38
0.45149732 0.18543474 0.60999936 1.0786889e-38
0.45859799 0.18540089 0.60999936 1.0786889e-38
0.46507514 0.18562181 0.60999936 1.0786889e-38
0.47234404 0.18558908 0.60999948 1.0786889e-38
0.47938505 0.18538588 0.60999954 1.0786889e-38
0.4861376 0.18540937 0.6099996 1.0786889e-38
0.4937304 0.18556872 0.6099996 1.0786889e-38
0.50081009 0.18538065 0.60999966 1.0786889e-38
0.50817961 0.18557478 0.60999966 1.0786889e-38
0.51470149 0.18564677 0.60999966 1.0786889e-38
0.52108657 0.18532835 0.60999972 1.0786889e-38
0.52909034 0.18570049 0.60999972 1.0786889e-38
0.53566831 0.18516968 0.60999984 1.0786889e-38
0.5427115 0.18563691 0.60999978 1.0786889e-38
0.54939115 0.18531187 0.60999995 1.0786889e-38
0.55642784 0.18558811 0.61000001 1.0786889e-38
0.56342155 0.18545733 0.61000007 1.0786889e-38
0.57049686 0.18532324 0.61000001 1.0786889e-38
0.57777017 0.18560602 0.61000013 1.0786889e-38
0.58401936 0.18554758 0.61000019 1.0786889e-38
0.59139031 0.18562441 0.61000025 1.0786889e-38
0.59884173 0.18541104 0.61000025 1.0786889e-38
0.60529906 0.18564264 0.61000025 1.0786889e-38
0.61182094 0.18529147 0.61000043 1.0786889e-38
0.61951464 0.18566184 0.61000049 1.0786889e-38
0.62729448 0.18544395 0.61000055 1.0786889e-38
0.63403815 0.18568088 0.61000055 1.0786889e-38
0.6408506 0.18532212 0.61000055 1.0786889e-38
0.64773273 0.18556082 0.61000055 1.0786889e-38
0.65468603 0.1854988 0.61000061 1.0786889e-38
0.66171098 0.18543832 0.61000067 1.0786889e-38
0.66880935 0.18537498 0.61000067 1.0786889e-38
0.67598158 0.18531322 0.61000067 1.0786889e-38
0.68300855 0.18589386 0.61000085 1.0786889e-38
0.68932617 0.18504164 0.61000091 1.0786889e-38
0.69548029 0.18576263 0.61000091 1.0786889e-38
0.70318514 0.18535486 0.61000103 1.0786889e-38
0.71047002 0.18563788 0.61000103 1.0786889e-38
0.71834171 0.18522502 0.61000109 1.0786889e-38
0.72449416 0.18536265 0.61000109 1.0786889e-38
0.73072755 0.18581566 0.61000115 1.0786889e-38
0.73904192 0.18537049 0.61000121 1.0786889e-38
0.74539983 0.1858288 0.61000127 1.0786889e-38
0.75232893 0.18525663 0.61000139 1.0786889e-38
0.76013356 0.1855491 0.61000144 1.0786889e-38
0.76692724 0.18533082 0.61000139 1.0786889e-38
0.77403909 0.1854061 0.6100015 1.0786889e-38
0.78071004 0.18587577 0.61000156 1.0786889e-38
0.78770107 0.1856564 0.61000156 1.0786889e-38
0.79475391 0.18543451 0.61000162 1.0786889e-38
0.80159235 0.18557967 0.61000162 1.0786889e-38
0.80927271 0.18543781 0.61000162 1.0786889e-38
0.81486815 0.18561044 0.61000174 1.0786889e-38
0.82218581 0.18538475 0.61000186 1.0786889e-38
0.82978159 0.18561552 0.61000186 1.0786889e-38
0.8353166 0.18532929 0.61000192 1.0786889e-38
0.84304905 0.1855633 0.61000198 1.0786889e-38
0.85063684 0.18533263 0.61000198 1.0786889e-38
0.85654324 0.18550859 0.61000204 1.0786889e-38
0.86449128 0.18574677 0.6100021 1.0786889e-38
0.33288187 0.19236693 0.60999864 1.0694693e-38
0.33981091 0.19251402 0.60999864 1.0694693e-38
0.34672627 0.1925282 0.60999864 1.0694693e-38
0.35373402 0.19254291 0.6099987 1.0694693e-38
0.36083603 0.19255824 0.60999864 1.0694693e-38
0.36815485 0.19242559 0.6099987 1.0694693e-38
0.37463364 0.19243145 0.6099987 1.0694693e-38
0.38117778 0.19251478 0.60999876 1.0694693e-38
0.388592 0.19253246 0.60999876 1.0694693e-38
0.39553517 0.19227836 0.60999882 1.0694693e-38
0.40250897 0.19246355 0.60999876 1.0694693e-38
0.40925843 0.19259754 0.60999894 1.0694693e-38
0.41638306 0.19240861 0.60999894 1.0694693e-38
0.42381212 0.19232374 0.60999906 1.0694693e-38
0.42999539 0.19256808 0.60999912 1.0694693e-38
0.43727416 0.1924188 0.60999912 1.0694693e-38
0.44506255 0.19248265 0.60999936 1.0694693e-38
0.45163074 0.19252813 0.60999936 1.0786889e-38
0.45827389 0.19257517 0.60999936 1.0786889e-38
0.46562511 0.19264534 0.61018682 1.0786889e-38
0.47205257 0.19264941 0.60999942 1.0786889e-38
0.47908944 0.19248872 0.60999954 1.0786889e-38
0.4865348 0.19249851 0.6099996 1.0786889e-38
0.49336988 0.19256324 0.6099996 1.0786889e-38
0.50066531 0.19239911 0.60999966 1.0786889e-38
0.5083437 0.19261335 0.60999966 1.0786889e-38
0.51455736 0.19241881 0.60999966 1.0786889e-38
0.5215075 0.192626 0.60999972 1.0786889e-38
0.52892089 0.19247633 0.60999972 1.0786889e-38
0.53552973 0.19233157 0.60999978 1.0786889e-38
0.54249376 0.19269831 0.60999978 1.0786889e-38
0.54923874 0.19227694 0.61000001 1.0786889e-38
0.55654615 0.19270228 0.61000001 1.0786889e-38
0.56342167 0.19219781 0.61000007 1.0786889e-38
0.5706175 0.19251631 0.61000001 1.0786889e-38
0.57777017 0.19242294 0.61000013 1.0786889e-38
0.5840196 0.19268318 0.61000019 1.0786889e-38
0.59139031 0.19251385 0.61000025 1.0786889e-38
0.59884173 0.19234015 0.61000019 1.0786889e-38
0.60529906 0.19260615 0.61000037 1.0786889e-38
0.61182094 0.19228971 0.61000043 1.0786889e-38
0.61951452 0.19270106 0.61000049 1.0786889e-38
0.62749773 0.19220252 0.61000055 1.0786889e-38
0.63403815 0.19279747 0.61000055 1.0786889e-38
0.64105797 0.19214955 0.61000055 1.0786889e-38
0.64773279 0.19275033 0.61000061 1.0786889e-38
0.65489745 0.19209552 0.61000061 1.0786889e-38
0.66171104 0.19270223 0.61000067 1.0786889e-38
0.66902518 0.19204035 0.61000067 1.0786889e-38
0.67598152 0.19265313 0.61000067 1.0786889e-38
0.68347251 0.19228855 0.61000079 1.0786889e-38
0.68932617 0.19245261 0.61000091 1.0786889e-38
0.6952554 0.19292463 0.61000097 1.0786889e-38
0.70293522 0.1922486 0.61000103 1.0786889e-38
0.71024036 0.19287668 0.61000103 1.0786889e-38
0.71808624 0.19219311 0.61000109 1.0786889e-38
0.7244941 0.1929609 0.61000109 1.0786889e-38
0.73122394 0.19243066 0.61000115 1.0786889e-38
0.73880321 0.19275679 0.61000115 1.0786889e-38
0.74539977 0.19257469 0.61000127 1.0786889e-38
0.75206113 0.19239141 0.61000139 1.0786889e-38
0.7598632 0.19272083 0.61000144 1.0786889e-38
0.76692736 0.19217701 0.61000144 1.0786889e-38
0.77353787 0.1926742 0.6100015 1.0786889e-38
0.78071004 0.1927862 0.61000156 1.0786889e-38
0.78770113 0.19259942 0.61000156 1.0786889e-38
0.79475385 0.19241036 0.61000162 1.0786889e-38
0.80213839 0.19252203 0.61000162 1.0786889e-38
0.80885988 0.19257848 0.61000162 1.0786889e-38
0.81486821 0.19268005 0.61000174 1.0786889e-38
0.8221857 0.19248843 0.61000186 1.0786889e-38
0.82956964 0.19229443 0.61000186 1.0786889e-38
0.83574396 0.19239528 0.61000192 1.0786889e-38
0.84277421 0.19245271 0.61000198 1.0786889e-38
0.85063678 0.19256888 0.61000204 1.0786889e-38
0.85698241 0.19267224 0.61000204 1.0786889e-38
0.86418092 0.19238731 0.6100021 1.0786889e-38
0.33298606 0.19939217 0.60999864 1.0694693e-38
0.33981091 0.19945118 0.60999864 1.0694693e-38
0.3467263 0.19951135 0.60999864 1.0694693e-38
0.35373399 0.19957277 0.60999864 1.0694693e-38
0.36083603 0.19963531 0.6099987 1.0694693e-38
0.36803421 0.199413 0.6099987 1.0694693e-38
0.3745949 0.19942442 0.6099987 1.0694693e-38
0.38123974 0.19943671 0.60999876 1.0694693e-38
0.38865504 0.19950134 0.60999876 1.0694693e-38
0.39553514 0.19958642 0.60999882 1.0694693e-38
0.40257004 0.19937558 0.60999876 1.0694693e-38
0.40947351 0.19942506 0.60999888 1.0694693e-38
0.41644928 0.19955498 0.60999894 1.0694693e-38
0.42355883 0.19946449 0.609999 1.0694693e-38
0.43026638 0.19933133 0.609999 1.0694693e-38
0.43756032 0.19938904 0.60999906 1.0694693e-38
0.44474617 0.19957101 0.60999924 1.0694693e-38
0.45141965 0.19912067 0.6099993 1.0694693e-38
0.45840943 0.19739296 0.60999924 1.0786889e-38
0.46526673 0.19687581 0.6099993 1.0786889e-38
0.47307813 0.19726332 0.60999942 1.0786889e-38
0.47943303 0.19875497 0.60999954 1.0786889e-38
0.48633623 0.19924021 0.6099996 1.0786889e-38
0.49352905 0.19951586 0.6099996 1.0786889e-38
0.50097179 0.19958438 0.6099996 1.0786889e-38
0.50801653 0.19948664 0.60999966 1.0786889e-38
0.51483524 0.19966963 0.60999966 1.0786889e-38
0.52129704 0.19956598 0.60999972 1.0786889e-38
0.5287078 0.19945709 0.60999972 1.0786889e-38
0.5358175 0.19970727 0.60999972 1.0786889e-38
0.54249376 0.19932739 0.60999978 1.0786889e-38
0.54939097 0.19947587 0.60999995 1.0786889e-38
0.55636907 0.1996282 0.61000001 1.0786889e-38
0.56326574 0.1992401 0.61000007 1.0786889e-38
0.57073838 0.19971134 0.61000001 1.0786889e-38
0.57777017 0.19923985 0.61000013 1.0786889e-38
0.58418071 0.19979756 0.61000019 1.0786889e-38
0.59139025 0.19940329 0.61000025 1.0786889e-38
0.59884167 0.19926928 0.61000019 1.0786889e-38
0.60529906 0.1995697 0.61000031 1.0786889e-38
0.61182094 0.19928797 0.61000031 1.0786889e-38
0.61951458 0.19974026 0.61000049 1.0786889e-38
0.62729454 0.19901621 0.61000055 1.0786889e-38
0.63403815 0.19991399 0.61000055 1.0786889e-38
0.64085048 0.19903274 0.61000055 1.0786889e-38
0.64773279 0.19993983 0.61000061 1.0786889e-38
0.6546858 0.19904959 0.61000067 1.0786889e-38
0.66149688 0.19969016 0.61000067 1.0786889e-38
0.66880912 0.19906682 0.61000067 1.0786889e-38
0.67576289 0.19971417 0.61000067 1.0786889e-38
0.68322945 0.1990844 0.61000085 1.0786889e-38
0.68932605 0.19986358 0.61000091 1.0786889e-38
0.69572759 0.19937825 0.61000091 1.0786889e-38
0.70293522 0.19973205 0.61000103 1.0786889e-38
0.71072268 0.19939953 0.61000103 1.0786889e-38
0.71808624 0.19975723 0.61000109 1.0786889e-38
0.72449404 0.19960938 0.61000109 1.0786889e-38
0.73096395 0.19946064 0.61000115 1.0786889e-38
0.73854065 0.19982262 0.61000121 1.0786889e-38
0.74539977 0.19932058 0.61000127 1.0786889e-38
0.75179374 0.1995223 0.61000139 1.0786889e-38
0.76037943 0.19947299 0.61000144 1.0786889e-38
0.76673222 0.19955806 0.61000144 1.0786889e-38
0.77406448 0.19948936 0.6100015 1.0786889e-38
0.78071004 0.19969662 0.61000156 1.0786889e-38
0.78770107 0.19954242 0.61000156 1.0786889e-38
0.79475391 0.19938622 0.61000162 1.0786889e-38
0.80159235 0.19959512 0.61000162 1.0786889e-38
0.80927277 0.19952485 0.61000162 1.0786889e-38
0.81486821 0.19974965 0.61000174 1.0786889e-38
0.82218575 0.1995921 0.61000186 1.0786889e-38
0.82956958 0.19943254 0.61000186 1.0786889e-38
0.83553028 0.19909923 0.61000186 1.0786889e-38
0.84335136 0.19958761 0.61000198 1.0786889e-38
0.85041893 0.19933672 0.61000204 1.0786889e-38
0.85676283 0.19946872 0.61000204 1.0786889e-38
0.86477351 0.19962125 0.6100021 1.0786889e-38
0.33293384 0.20642282 0.60999864 1.0694693e-38
0.33981082 0.20652708 0.60999864 1.0694693e-38
0.34672627 0.20649458 0.60999864 1.0694693e-38
0.35373399 0.20660259 0.60999864 1.0694693e-38
0.3607167 0.20657344 0.6099987 1.0694693e-38
0.36803412 0.20653801 0.6099987 1.0694693e-38
0.37471065 0.20640579 0.6099987 1.0694693e-38
0.38123959 0.20650537 0.60999876 1.0694693e-38
0.38871789 0.2064714 0.60999876 1.0694693e-38
0.39541465 0.20672005 0.60999882 1.0694693e-38
0.40231276 0.20644237 0.60999876 1.0694693e-38
0.40955552 0.20645063 0.60999888 1.0694693e-38
0.41658425 0.20655225 0.60999894 1.0694693e-38
0.42368582 0.2063877 0.609999 1.0694693e-38
0.4300102 0.20651141 0.60999912 1.0694693e-38
0.43762538 0.20652081 0.60999912 1.0694693e-38
0.44462261 0.205991 0.61063796 9.6805383e-39
0.4491061 0.20365301 0.60999918 1.0694693e-38
0.48902005 0.20360556 0.60999954 1.0786889e-38
0.49443433 0.20465852 0.6099996 1.0786889e-38
0.50081003 0.20540278 0.6099996 1.0786889e-38
0.50841129 0.20615831 0.60999966 1.0786889e-38
0.51470149 0.20671022 0.60999966 1.0786889e-38
0.52113003 0.20629609 0.60999972 1.0786889e-38
0.5289771 0.20660973 0.60999972 1.0786889e-38
0.53566831 0.20659597 0.60999984 1.0786889e-38
0.54227597 0.20638387 0.60999978 1.0786889e-38
0.54954368 0.20667727 0.61000001 1.0786889e-38
0.55636913 0.20633119 0.61000001 1.0786889e-38
0.56342137 0.20652053 0.61000007 1.0786889e-38
0.57055742 0.20671433 0.61000001 1.0786889e-38
0.57777017 0.20605679 0.61000013 1.0786889e-38
0.5840196 0.20695536 0.61000019 1.0786889e-38
0.59139025 0.20629273 0.61000025 1.0786889e-38
0.59884149 0.20648718 0.61000019 1.0786889e-38
0.60529906 0.20653319 0.61000025 1.0786889e-38
0.61182094 0.20628621 0.61000037 1.0786889e-38
0.61951458 0.20677948 0.61000049 1.0786889e-38
0.62729448 0.20609684 0.61000055 1.0786889e-38
0.63383269 0.20675908 0.61000055 1.0786889e-38
0.64085054 0.20618558 0.61000055 1.0786889e-38
0.64752299 0.20685504 0.61000055 1.0786889e-38
0.6546858 0.20627613 0.61000067 1.0786889e-38
0.66171092 0.20662373 0.61000067 1.0786889e-38
0.66880912 0.20636855 0.61000067 1.0786889e-38
0.67598182 0.20641436 0.61000067 1.0786889e-38
0.68322945 0.20646293 0.61000085 1.0786889e-38
0.68915111 0.20685391 0.61000091 1.0786889e-38
0.69548029 0.20623295 0.61000085 1.0786889e-38
0.70268548 0.20662086 0.61000103 1.0786889e-38
0.71047002 0.20632772 0.61000103 1.0786889e-38
0.71783125 0.20672028 0.61000109 1.0786889e-38
0.7244941 0.20625786 0.61000109 1.0786889e-38
0.73072755 0.20680214 0.61000115 1.0786889e-38
0.73904192 0.20647877 0.61000121 1.0786889e-38
0.74521047 0.20659259 0.61000127 1.0786889e-38
0.75230432 0.2062396 0.61000133 1.0786889e-38
0.76012081 0.20640403 0.61008286 1.0786889e-38
0.76712239 0.20631257 0.61000144 1.0786889e-38
0.77353787 0.2064282 0.6100015 1.0786889e-38
0.78071004 0.20660704 0.61000156 1.0786889e-38
0.78770107 0.20648541 0.61000156 1.0786889e-38
0.79475397 0.20636208 0.61000162 1.0786889e-38
0.80213851 0.20654254 0.61000162 1.0786889e-38
0.80885988 0.20666167 0.61000162 1.0786889e-38
0.81486821 0.20681922 0.61000174 1.0786889e-38
0.82191831 0.20638609 0.61000192 1.0786889e-38
0.82956958 0.20657063 0.61000186 1.0786889e-38
0.83553034 0.20626508 0.61000192 1.0786889e-38
0.84274709 0.206512 0.61000198 1.0786889e-38
0.85085475 0.20647606 0.61000204 1.0786889e-38
0.85654312 0.20626225 0.61000204 1.0786889e-38
0.86449128 0.20660625 0.6100021 1.0786889e-38
0.33298603 0.21345089 0.60999858 1.0694693e-38
0.33981088 0.21360298 0.60999864 1.0694693e-38
0.34672627 0.21347779 0.60999864 1.0694693e-38
0.35373399 0.21363239 0.60999864 1.0694693e-38
0.36083594 0.21350569 0.6099987 1.0694693e-38
0.36791322 0.21352233 0.6099987 1.0694693e-38
0.37459493 0.21340406 0.6099987 1.0694693e-38
0.38130152 0.2135732 0.60999876 1.0694693e-38
0.38878047 0.21344273 0.60999876 1.0694693e-38
0.39549512 0.21365617 0.60999882 1.0694693e-38
0.40237728 0.21349971 0.60999876 1.0694693e-38
0.40930867 0.21349786 0.60999888 1.0694693e-38
0.41664696 0.21355321 0.60999894 1.0694693e-38
0.42381206 0.2133134 0.609999 1.0694693e-38
0.43013868 0.21347511 0.609999 1.0694693e-38
0.4372741 0.21365939 0.60999918 1.0694693e-38
0.44243598 0.21174504 0.60999918 1.0694693e-38
0.5109635 0.21018112 0.60999966 1.0786889e-38
0.51470149 0.21076088 0.60999966 1.0786889e-38
0.52203333 0.21171717 0.60999972 1.0786889e-38
0.52928048 0.21343184 0.60999972 1.0786889e-38
0.53550571 0.21295859 0.6104266 1.0786889e-38
0.54255116 0.21361688 0.60999978 1.0786889e-38
0.54939109 0.21364151 0.61000001 1.0786889e-38
0.5561924 0.21325314 0.61000001 1.0786889e-38
0.56357759 0.21380356 0.61000007 1.0786889e-38
0.5705573 0.21349284 0.61000001 1.0786889e-38
0.57761085 0.21317713 0.61000013 1.0786889e-38
0.5840196 0.21380551 0.61000019 1.0786889e-38
0.59139037 0.21318221 0.61000025 1.0786889e-38
0.59884173 0.21370494 0.61000019 1.0786889e-38
0.60529906 0.2134967 0.61000031 1.0786889e-38
0.61182088 0.21328448 0.61000031 1.0786889e-38
0.61951458 0.2138187 0.61000049 1.0786889e-38
0.62729448 0.2131775 0.61000055 1.0786889e-38
0.63403815 0.21355307 0.61000055 1.0786889e-38
0.64085054 0.21333842 0.61000055 1.0786889e-38
0.64773303 0.21341902 0.61000061 1.0786889e-38
0.6546858 0.2135026 0.61000061 1.0786889e-38
0.66171116 0.2135849 0.61000067 1.0786889e-38
0.66880912 0.2136703 0.61000067 1.0786889e-38
0.67619991 0.21311793 0.61000079 1.0786889e-38
0.68322945 0.21384145 0.61000091 1.0786889e-38
0.68950123 0.21325348 0.61000091 1.0786889e-38
0.69548029 0.21367671 0.61000091 1.0786889e-38
0.70316213 0.21311359 0.61000103 1.0786889e-38
0.71024036 0.21356316 0.61000103 1.0786889e-38
0.71831816 0.21328308 0.61000109 1.0786889e-38
0.72449416 0.2138561 0.61000109 1.0786889e-38
0.73122394 0.21342444 0.61000115 1.0786889e-38
0.73856425 0.2135676 0.61000115 1.0786889e-38
0.7455892 0.21324997 0.61000127 1.0786889e-38
0.75206113 0.21369033 0.61000139 1.0786889e-38
0.76040441 0.21342616 0.61000144 1.0786889e-38
0.76692724 0.21369365 0.61000144 1.0786889e-38
0.77406448 0.21324825 0.6100015 1.0786889e-38
0.78071004 0.21351747 0.61000156 1.0786889e-38
0.78770107 0.21342842 0.61000156 1.0786889e-38
0.79475397 0.21333796 0.61000162 1.0786889e-38
0.80159223 0.21361057 0.61000162 1.0786889e-38
0.80927271 0.21361189 0.61000162 1.0786889e-38
0.81466013 0.21342924 0.61000174 1.0786889e-38
0.8224799 0.21342978 0.61000192 1.0786889e-38
0.8295697 0.21370871 0.6100018 1.0786889e-38
0.83553022 0.21343096 0.61000198 1.0786889e-38
0.84332353 0.21365218 0.61000198 1.0786889e-38
0.85063678 0.2132439 0.61000204 1.0786889e-38
0.85698241 0.21343172 0.61000204 1.0786889e-38
0.86418092 0.21324265 0.6100021 1.0786889e-38
0.33298591 0.22048047 0.60999864 1.0694693e-38
0.33981091 0.22054012 0.60999864 1.0694693e-38
0.34672627 0.22046091 0.60999864 1.0694693e-38
0.35367528 0.22052211 0.60999864 1.0694693e-38
0.36083603 0.22058281 0.60999864 1.0694693e-38
0.36803412 0.22050229 0.6099987 1.0694693e-38
0.3745949 0.22057278 0.6099987 1.0694693e-38
0.38136315 0.22049792 0.60999876 1.0694693e-38
0.38884303 0.22041528 0.60999876 1.0694693e-38
0.3957046 0.22040398 0.60999882 1.0694693e-38
0.40258268 0.22044817 0.61014211 1.0694693e-38
0.40939116 0.2205223 0.60999888 1.0694693e-38
0.41630849 0.22055829 0.60999894 1.0694693e-38
0.4235588 0.22044942 0.609999 1.0694693e-38
0.43037909 0.22037451 0.61025667 1.0694693e-38
0.43607947 0.22021624 0.60999918 1.0694693e-38
0.53083867 0.21818897 0.60999978 1.0786889e-38
0.53584445 0.21958518 0.60999972 1.0694693e-38
0.54266685 0.22065519 0.60999978 1.0694693e-38
0.54939121 0.22030729 0.60999995 1.0694693e-38
0.55630994 0.22036733 0.61000001 1.0694693e-38
0.56342167 0.22084497 0.61000007 1.0694693e-38
0.5705573 0.2202713 0.61000001 1.0694693e-38
0.57776999 0.22054186 0.61000013 1.0694693e-38
0.5840196 0.22065572 0.61000019 1.0786889e-38
0.59120363 0.22029573 0.61000025 1.0786889e-38
0.59884167 0.22063409 0.61000019 1.0786889e-38
0.60529906 0.22046024 0.61000025 1.0786889e-38
0.61182094 0.22028272 0.61000031 1.0786889e-38
0.61929327 0.22064818 0.61000049 1.0786889e-38
0.62729454 0.22025816 0.61000049 1.0786889e-38
0.63403815 0.22066963 0.61000055 1.0786889e-38
0.64085054 0.22049125 0.61000055 1.0786889e-38
0.64773273 0.220309 0.61000055 1.0786889e-38
0.6546858 0.22072916 0.61000067 1.0786889e-38
0.66192484 0.22022019 0.61000067 1.0786889e-38
0.66859275 0.22069125 0.61000067 1.0786889e-38
0.67598152 0.22017784 0.61000079 1.0786889e-38
0.68300849 0.22093621 0.61000091 1.0786889e-38
0.68932617 0.22024381 0.61000091 1.0786889e-38
0.6952554 0.22083424 0.61000097 1.0786889e-38
0.70293522 0.22031157 0.61000103 1.0786889e-38
0.71047026 0.22043325 0.61000103 1.0786889e-38
0.71808624 0.22055864 0.61000109 1.0786889e-38
0.72449404 0.22050458 0.61000109 1.0786889e-38
0.73096395 0.2204506 0.61000115 1.0786889e-38
0.73906612 0.22022851 0.61000121 1.0786889e-38
0.74539977 0.22052196 0.61000127 1.0786889e-38
0.75179374 0.2208173 0.61000127 1.0786889e-38
0.7601335 0.2205953 0.61000144 1.0786889e-38
0.76692724 0.22053985 0.61000144 1.0786889e-38
0.77378863 0.22048439 0.6100015 1.0786889e-38
0.78071004 0.22042789 0.61000156 1.0786889e-38
0.78770107 0.22037143 0.61000156 1.0786889e-38
0.79475385 0.2203138 0.61000162 1.0786889e-38
0.80213851 0.22056308 0.61000162 1.0786889e-38
0.8090663 0.22019756 0.61000162 1.0786889e-38
0.81507623 0.22040799 0.61000174 1.0786889e-38
0.82191825 0.22059098 0.61000192 1.0786889e-38
0.82956964 0.22084682 0.61000186 1.0786889e-38
0.83553022 0.22059682 0.61000192 1.0786889e-38
0.84304911 0.22053908 0.61000198 1.0786889e-38
0.85063684 0.22048016 0.61000204 1.0786889e-38
0.85676283 0.22022527 0.61000204 1.0786889e-38
0.86477351 0.22048445 0.6100021 1.0786889e-38
0.33298603 0.22750998 0.60999864 1.0694693e-38
0.33981088 0.22747727 0.60999864 1.0694693e-38
0.34672627 0.22744408 0.60999864 1.0694693e-38
0.35373405 0.2274105 0.60999864 1.0694693e-38
0.36077654 0.22751842 0.6099987 1.0694693e-38
0.36797392 0.2274849 0.6099987 1.0694693e-38
0.37447897 0.22756808 0.6099987 1.0694693e-38
0.38111565 0.22742425 0.60999876 1.0694693e-38
0.38859203 0.22738941 0.60999876 1.0694693e-38
0.39553517 0.22735715 0.60999882 1.0694693e-38
0.40264291 0.22747083 0.60999876 1.0694693e-38
0.40947345 0.22754832 0.60999894 1.0694693e-38
0.41651535 0.2275563 0.60999888 1.0694693e-38
0.4236435 0.22756444 0.609999 1.0694693e-38
0.43001014 0.22761661 0.609999 1.0694693e-38
0.43475166 0.22560893 0.60999918 1.0694693e-38
0.54347426 0.22612379 0.60999995 1.0694693e-38
0.5492388 0.22726811 0.6099999 1.0694693e-38
0.55642784 0.22748351 0.61000001 1.0694693e-38
0.56342149 0.22758548 0.61000007 1.0694693e-38
0.57037675 0.22726934 0.61000001 1.0694693e-38
0.57777023 0.22764276 0.61000013 1.0694693e-38
0.5840196 0.22750592 0.61000019 1.0694693e-38
0.59139019 0.22739062 0.61000025 1.0694693e-38
0.59872049 0.22769974 0.61007226 1.0694693e-38
0.60529912 0.22742374 0.61000025 1.0694693e-38
0.61182088 0.22728096 0.61000037 1.0694693e-38
0.61951464 0.22745606 0.61000049 1.0694693e-38
0.6272946 0.22733879 0.61000055 1.0694693e-38
0.63403839 0.22748962 0.61000055 1.0694693e-38
0.64008975 0.22603744 0.61000055 1.0786889e-38
0.64773017 0.22420394 0.61000055 1.0786889e-38
0.6546858 0.22524571 0.61000067 1.0786889e-38
0.66171092 0.2253899 0.61000067 1.0786889e-38
0.66914904 0.22610714 0.61000073 1.0786889e-38
0.67619985 0.22730054 0.61000067 1.0786889e-38
0.68322974 0.22767502 0.61000079 1.0786889e-38
0.68932617 0.22765477 0.61000091 1.0786889e-38
0.69548053 0.22763258 0.61000091 1.0786889e-38
0.70293522 0.22779499 0.61000103 1.0786889e-38
0.71069944 0.22730689 0.61000103 1.0786889e-38
0.71785408 0.22783075 0.61000109 1.0786889e-38
0.72449416 0.22715308 0.61000109 1.0786889e-38
0.73072755 0.22778864 0.61000115 1.0786889e-38
0.73880321 0.22729184 0.61000115 1.0786889e-38
0.74521047 0.22779118 0.61000127 1.0786889e-38
0.75230432 0.22754206 0.61000139 1.0786889e-38
0.7598632 0.22776058 0.61000144 1.0786889e-38
0.76692724 0.22738604 0.61000144 1.0786889e-38
0.7735132 0.22771654 0.6100015 1.0786889e-38
0.78071004 0.22733831 0.61000156 1.0786889e-38
0.78742039 0.22767171 0.61000156 1.0786889e-38
0.79475397 0.22728968 0.61000162 1.0786889e-38
0.80159235 0.22762604 0.61000162 1.0786889e-38
0.8090663 0.22724012 0.61000162 1.0786889e-38
0.81466013 0.22756648 0.61000174 1.0786889e-38
0.82247984 0.22763991 0.61000192 1.0786889e-38
0.82935762 0.22751892 0.61000186 1.0786889e-38
0.83553028 0.22776268 0.61000186 1.0786889e-38
0.84277421 0.22742228 0.61000198 1.0786889e-38
0.85063678 0.22771639 0.61000204 1.0786889e-38
0.85676289 0.22749007 0.61000204 1.0786889e-38
0.86449128 0.22746569 0.6100021 1.0786889e-38
0.33303818 0.23453982 0.60999858 1.0694693e-38
0.33981094 0.23441437 0.60999864 1.0694693e-38
0.34672627 0.23442727 0.60999864 1.0694693e-38
0.35373402 0.23444031 0.60999864 1.0694693e-38
0.36083603 0.23445354 0.6099987 1.0694693e-38
0.36803421 0.23446696 0.6099987 1.0694693e-38
0.3745949 0.234551 0.6099987 1.0694693e-38
0.3812395 0.23449194 0.6099987 1.0694693e-38
0.38871756 0.23450588 0.60999876 1.0694693e-38
0.39548689 0.2346472 0.61029166 1.0694693e-38
0.40231273 0.23438454 0.60999876 1.0694693e-38
0.40955552 0.23457597 0.60999894 1.0694693e-38
0.41672167 0.23455822 0.60999894 1.0694693e-38
0.42386374 0.23448804 0.609999 1.0694693e-38
0.43013865 0.23458269 0.609999 1.0694693e-38
0.43461531 0.23655957 0.60999912 1.0694693e-38
0.55058026 0.23267262 0.6099999 1.0694693e-38
0.55654603 0.23460163 0.61000001 1.0694693e-38
0.56342155 0.234326 0.61000007 1.0694693e-38
0.5704968 0.23446508 0.61000001 1.0694693e-38
0.57792974 0.23472697 0.61000013 1.0694693e-38
0.5840196 0.23435611 0.61000019 1.0694693e-38
0.59132785 0.23449765 0.61000025 1.0694693e-38
0.59884173 0.23449236 0.61000019 1.0694693e-38
0.60529906 0.23438726 0.61000031 1.0694693e-38
0.61182094 0.23427922 0.61000043 1.0694693e-38
0.61951458 0.2344953 0.61000049 1.0694693e-38
0.62729454 0.23441945 0.61000055 1.0694693e-38
0.63290787 0.23264903 0.61000049 1.0694693e-38
0.68414003 0.23381081 0.61000091 1.0694693e-38
0.68915111 0.2346416 0.61000091 1.0694693e-38
0.69570488 0.23443446 0.61000097 1.0694693e-38
0.70268548 0.23467882 0.61000103 1.0694693e-38
0.71047014 0.23454116 0.61000103 1.0694693e-38
0.71834165 0.23440075 0.61000109 1.0786889e-38
0.7244941 0.23475133 0.61000109 1.0694693e-38
0.73122394 0.23441823 0.61000115 1.0786889e-38
0.73856425 0.23466888 0.61000121 1.0786889e-38
0.7455892 0.23445413 0.61000127 1.0786889e-38
0.75181776 0.23468909 0.61000139 1.0786889e-38
0.76037943 0.2345251 0.61000144 1.0786889e-38
0.76673222 0.23476243 0.61000144 1.0786889e-38
0.77403909 0.23454423 0.6100015 1.0786889e-38
0.78051132 0.23478389 0.6100015 1.0786889e-38
0.78795624 0.23456377 0.61000156 1.0786889e-38
0.79475385 0.23426552 0.61000162 1.0786889e-38
0.80213839 0.23458363 0.61000162 1.0786889e-38
0.8090663 0.23428267 0.61000162 1.0786889e-38
0.81507623 0.23454912 0.61000174 1.0786889e-38
0.82189196 0.23445997 0.61000186 1.0786889e-38
0.82978165 0.23456922 0.61000192 1.0786889e-38
0.8353166 0.2344598 0.61000192 1.0786889e-38
0.84335136 0.23457024 0.61000198 1.0786889e-38
0.85041893 0.23447929 0.61000204 1.0786889e-38
0.85676289 0.23475488 0.61000204 1.0786889e-38
0.86420876 0.23444317 0.6100021 1.0786889e-38
0.33298606 0.24156946 0.60999852 1.0694693e-38
0.33986372 0.24149098 0.60999864 1.0694693e-38
0.34672624 0.24141045 0.60999864 1.0694693e-38
0.35373402 0.24147019 0.60999864 1.0694693e-38
0.36083606 0.24153064 0.6099987 1.0694693e-38
0.36803436 0.24144946 0.6099987 1.0694693e-38
0.37455639 0.24154183 0.6099987 1.0694693e-38
0.38117775 0.24155985 0.6099987 1.0694693e-38
0.38865504 0.24162252 0.60999876 1.0694693e-38
0.39549512 0.24142595 0.60999876 1.0694693e-38
0.40237728 0.24144351 0.60999876 1.0694693e-38
0.40930861 0.24161695 0.60999888 1.0694693e-38
0.41630852 0.24140812 0.60999894 1.0694693e-38
0.4235588 0.24143438 0.609999 1.0694693e-38
0.43026638 0.24155129 0.609999 1.0694693e-38
0.43687195 0.24229434 0.60999918 1.0694693e-38
0.55636907 0.24152166 0.61000001 1.0694693e-38
0.56326574 0.24136306 0.61000007 1.0694693e-38
0.5705573 0.24145283 0.61000001 1.0694693e-38
0.57777017 0.24184559 0.61000013 1.0694693e-38
0.58401954 0.2412063 0.61000019 1.0694693e-38
0.59139025 0.24159975 0.61000025 1.0694693e-38
0.59900653 0.24169405 0.61000019 1.0694693e-38
0.60529912 0.24135077 0.61000037 1.0694693e-38
0.61182094 0.24127746 0.61000043 1.0694693e-38
0.61965775 0.24163622 0.61044216 1.0049682e-38
0.62580353 0.23919074 0.61000043 1.0694693e-38
0.69055122 0.23896208 0.61000091 1.0694693e-38
0.69570488 0.24137273 0.61000097 1.0694693e-38
0.70316213 0.24118108 0.61000103 1.0694693e-38
0.71024036 0.24177203 0.61000103 1.0694693e-38
0.71808624 0.24136002 0.61000109 1.0694693e-38
0.7243101 0.24191378 0.61000109 1.0694693e-38
0.73096395 0.24144058 0.61000115 1.0694693e-38
0.73906612 0.24133714 0.61000121 1.0694693e-38
0.74539983 0.24172334 0.61000127 1.0694693e-38
0.75232899 0.24141869 0.61000139 1.0694693e-38
0.75988752 0.24170943 0.61000144 1.0694693e-38
0.76712239 0.24152628 0.61000144 1.0694693e-38
0.77351314 0.24147034 0.6100015 1.0694693e-38
0.78090876 0.24161123 0.61000156 1.0694693e-38
0.78742039 0.24155512 0.61000156 1.0694693e-38
0.79475397 0.2412414 0.61000162 1.0694693e-38
0.80171019 0.24166387 0.61010796 1.0694693e-38
0.8090663 0.2413252 0.61000162 1.0786889e-38
0.81466013 0.24170372 0.61000174 1.0786889e-38
0.8224529 0.24151401 0.6100018 1.0786889e-38
0.82956964 0.24124135 0.61000186 1.0786889e-38
0.8357439 0.24153945 0.61000198 1.0786889e-38
0.84274709 0.24148092 0.61000198 1.0786889e-38
0.85085475 0.24162851 0.61000204 1.0786889e-38
0.85654324 0.24154346 0.61000204 1.0786889e-38
0.86480206 0.24169298 0.6100021 1.0786889e-38
0.33298603 0.24846117 0.60999864 1.0694693e-38
0.33981091 0.24856655 0.60999864 1.0694693e-38
0.3467263 0.24839363 0.60999864 1.0694693e-38
0.35373402 0.2485 0.60999864 1.0694693e-38
0.36083615 0.24846621 0.60999864 1.0694693e-38
0.36803421 0.24843197 0.6099987 1.0694693e-38
0.37459493 0.24852967 0.6099987 1.0694693e-38
0.38123974 0.24848457 0.60999876 1.0694693e-38
0.38871777 0.24859512 0.60999876 1.0694693e-38
0.39557537 0.24836563 0.60999876 1.0694693e-38
0.40244174 0.24850374 0.60999876 1.0694693e-38
0.40939116 0.24864347 0.60999888 1.0694693e-38
0.41651538 0.24840997 0.60999888 1.0694693e-38
0.4236435 0.248551 0.609999 1.0694693e-38
0.42995813 0.24853492 0.609999 1.0694693e-38
0.43727416 0.24855462 0.60999906 1.0694693e-38
0.44454277 0.24894243 0.60999924 1.0694693e-38
0.45045084 0.25082806 0.6099993 1.0694693e-38
0.55137432 0.25149962 0.6099999 1.0694693e-38
0.55619246 0.2484387 0.61000001 1.0694693e-38
0.56342167 0.24836783 0.61000007 1.0694693e-38
0.57061732 0.24844161 0.61000001 1.0694693e-38
0.57777017 0.24866252 0.61000013 1.0694693e-38
0.58385861 0.248357 0.61000019 1.0694693e-38
0.59139031 0.2484892 0.61000025 1.0694693e-38
0.59884173 0.24892898 0.61000019 1.0694693e-38
0.60529912 0.24831431 0.61000031 1.0694693e-38
0.61192769 0.24853794 0.6102953 1.0325911e-38
0.61746085 0.24788533 0.6105814 1.0233715e-38
0.70324731 0.24725568 0.61000103 1.0694693e-38
0.71047026 0.24864669 0.61000103 1.0694693e-38
0.71785414 0.24862872 0.61000109 1.0694693e-38
0.7246781 0.24848413 0.61000115 1.0694693e-38
0.73072761 0.24877518 0.61000115 1.0694693e-38
0.73880321 0.24839662 0.61000115 1.0694693e-38
0.74539977 0.24846922 0.61000127 1.0694693e-38
0.75206119 0.24854313 0.61000133 1.0694693e-38
0.76040441 0.24847889 0.61000144 1.0694693e-38
0.76673222 0.24845302 0.61000144 1.0694693e-38
0.77403909 0.24830292 0.6100015 1.0694693e-38
0.78051132 0.24860285 0.61000156 1.0694693e-38
0.78795624 0.24845214 0.61000156 1.0694693e-38
0.79455143 0.24875557 0.61000162 1.0694693e-38
0.80213851 0.24860419 0.61000162 1.0694693e-38
0.80906636 0.24836774 0.61000162 1.0694693e-38
0.81507623 0.24869023 0.61000174 1.0694693e-38
0.8218919 0.24866462 0.61000186 1.0694693e-38
0.82956964 0.24837942 0.61000192 1.0694693e-38
0.83553022 0.24823658 0.61000186 1.0694693e-38
0.84332353 0.2486342 0.61000198 1.0694693e-38
0.85063678 0.2483914 0.61000204 1.0694693e-38
0.85698253 0.24872287 0.61000204 1.0694693e-38
0.86449128 0.24832517 0.6100021 1.0786889e-38
0.33298603 0.25535294 0.60999864 1.0694693e-38
0.33981088 0.25550374 0.60999864 1.0694693e-38
0.3467263 0.25537685 0.60999864 1.0694693e-38
0.35373399 0.25552982 0.60999864 1.0694693e-38
0.360836 0.25540179 0.60999864 1.0694693e-38
0.36803421 0.25555697 0.6099987 1.0694693e-38
0.37463361 0.2555182 0.60999876 1.0694693e-38
0.38123953 0.25555331 0.6099987 1.0694693e-38
0.3887805 0.2555688 0.60999876 1.0694693e-38
0.39565545 0.25530693 0.60999882 1.0694693e-38
0.40250599 0.25556514 0.60999876 1.0694693e-38
0.40960592 0.25548348 0.60999894 1.0694693e-38
0.41658118 0.25556138 0.60999888 1.0694693e-38
0.42386377 0.25547868 0.609999 1.0694693e-38
0.43018126 0.25550061 0.609999 1.0694693e-38
0.43756032 0.25553894 0.60999906 1.0694693e-38
0.44497511 0.25549588 0.6099993 1.0694693e-38
0.45163074 0.25551632 0.60999924 1.0694693e-38
0.45804372 0.25604257 0.60999924 1.0694693e-38
0.46405897 0.25787669 0.6099993 1.0694693e-38
0.5501343 0.25606564 0.60999995 1.0694693e-38
0.55630994 0.2555562 0.61000001 1.0694693e-38
0.56342149 0.25538921 0.61000007 1.0694693e-38
0.57073832 0.25564197 0.61000001 1.0694693e-38
0.57777017 0.25547943 0.61000013 1.0694693e-38
0.5840196 0.25547662 0.61000019 1.0694693e-38
0.59139025 0.25537866 0.61000025 1.0694693e-38
0.59884167 0.25585812 0.61000019 1.0694693e-38
0.60549474 0.25544766 0.61039484 1.0234075e-38
0.61129963 0.25492671 0.61041498 1.0234075e-38
0.71215343 0.25488195 0.61000103 1.0694693e-38
0.71808648 0.25554156 0.61000109 1.0694693e-38
0.72449416 0.25564656 0.61000109 1.0694693e-38
0.73122394 0.25541204 0.61000115 1.0694693e-38
0.73856425 0.25577018 0.61000121 1.0694693e-38
0.74539983 0.25521511 0.61000127 1.0694693e-38
0.75179368 0.25566369 0.61000121 1.0694693e-38
0.76013356 0.25564155 0.61000144 1.0694693e-38
0.76712227 0.2552205 0.6100015 1.0694693e-38
0.77353787 0.2555497 0.6100015 1.0694693e-38
0.78090876 0.25543389 0.61000156 1.0694693e-38
0.78742039 0.25543848 0.61000156 1.0694693e-38
0.79495651 0.25565138 0.61000162 1.0694693e-38
0.80159235 0.25565696 0.61000162 1.0694693e-38
0.80906636 0.25541031 0.61000162 1.0694693e-38
0.81486821 0.25529638 0.61000174 1.0694693e-38
0.82245296 0.25572392 0.61000192 1.0694693e-38
0.82956964 0.25551754 0.61000186 1.0694693e-38
0.83553028 0.25540248 0.61000192 1.0694693e-38
0.84304905 0.25551489 0.61000198 1.0694693e-38
0.85063684 0.25562766 0.61000204 1.0694693e-38
0.85676289 0.25551143 0.61000204 1.0694693e-38
0.86420876 0.25529882 0.6100021 1.0694693e-38
0.33309048 0.26238582 0.60999864 1.0694693e-38
0.33981082 0.26244086 0.60999864 1.0694693e-38
0.3467263 0.26236004 0.60999864 1.0694693e-38
0.35373402 0.26255965 0.60999864 1.0694693e-38
0.36083606 0.26247886 0.6099987 1.0694693e-38
0.36809468 0.26254141 0.6099987 1.0694693e-38
0.3745949 0.2625089 0.6099987 1.0694693e-38
0.38130155 0.26262388 0.60999876 1.0694693e-38
0.38884294 0.26254371 0.60999876 1.0694693e-38
0.39553514 0.26243594 0.60999876 1.0694693e-38
0.4024412 0.26247686 0.60999876 1.0694693e-38
0.40943223 0.26251918 0.60999882 1.0694693e-38
0.41651481 0.26256111 0.60999894 1.0694693e-38
0.4235588 0.26241931 0.609999 1.0694693e-38
0.4301382 0.26247489 0.609999 1.0694693e-38
0.43748817 0.26251814 0.60999918 1.0694693e-38
0.44493088 0.26256135 0.60999924 1.0694693e-38
0.45163023 0.26242974 0.60999912 1.0694693e-38
0.45854297 0.26248759 0.60999936 1.0694693e-38
0.46545839 0.26254711 0.60999942 1.0694693e-38
0.47177008 0.26337099 0.60999936 1.0694693e-38
0.47746289 0.26467139 0.60999942 1.0694693e-38
0.54478174 0.263298 0.6099999 1.0694693e-38
0.54923874 0.26225922 0.61000001 1.0694693e-38
0.55636907 0.26246703 0.61000001 1.0694693e-38
0.56357759 0.26267824 0.61000007 1.0694693e-38
0.5705573 0.26263702 0.61000001 1.0694693e-38
0.57777017 0.26229632 0.61000013 1.0694693e-38
0.5840196 0.26232684 0.61000019 1.0694693e-38
0.5914523 0.26248252 0.61000025 1.0694693e-38
0.59884173 0.26278725 0.61000019 1.0694693e-38
0.60466272 0.26201051 0.61104393 9.5890644e-39
0.60963738 0.26041836 0.61000037 1.0694693e-38
0.71893656 0.26220027 0.61000109 1.0694693e-38
0.7243101 0.26280627 0.61000109 1.0694693e-38
0.730964 0.26243055 0.61000115 1.0694693e-38
0.73906612 0.26244575 0.61000121 1.0694693e-38
0.74521047 0.26247978 0.61000127 1.0694693e-38
0.75230426 0.26240066 0.61000127 1.0694693e-38
0.7598632 0.26280031 0.61000144 1.0694693e-38
0.76692724 0.26259509 0.61000144 1.0694693e-38
0.77406442 0.26238722 0.6100015 1.0694693e-38
0.78051132 0.26242188 0.61000156 1.0694693e-38
0.7879563 0.26234052 0.61000156 1.0694693e-38
0.79455137 0.26270542 0.61000162 1.0694693e-38
0.80213839 0.26262471 0.61000162 1.0694693e-38
0.8090663 0.26245287 0.61000162 1.0694693e-38
0.81486815 0.26236594 0.61000174 1.0694693e-38
0.82218581 0.26251045 0.61000186 1.0694693e-38
0.82956964 0.26265562 0.61000192 1.0694693e-38
0.83553022 0.26256832 0.61000198 1.0694693e-38
0.84277421 0.26239187 0.61000198 1.0694693e-38
0.85063678 0.2628639 0.61000204 1.0694693e-38
0.85654324 0.26229709 0.61000204 1.0694693e-38
0.86480206 0.26255655 0.6100021 1.0694693e-38
0.33288193 0.26954648 0.60999858 1.0694693e-38
0.33981082 0.26937801 0.60999864 1.0694693e-38
0.34672627 0.26934323 0.60999864 1.0694693e-38
0.35373405 0.26958948 0.60999864 1.0694693e-38
0.360836 0.26955599 0.6099987 1.0694693e-38
0.36803421 0.26952243 0.6099987 1.0694693e-38
0.37471065 0.26949707 0.60999876 1.0694693e-38
0.38136318 0.26955137 0.60999876 1.0694693e-38
0.38859197 0.26950824 0.60999876 1.0694693e-38
0.39541459 0.26956263 0.60999882 1.0694693e-38
0.40237728 0.2693873 0.60999876 1.0694693e-38
0.4092584 0.26955163 0.60999888 1.0694693e-38
0.41644928 0.26955959 0.60999894 1.0694693e-38
0.42364347 0.26953751 0.609999 1.0694693e-38
0.43009582 0.26944837 0.609999 1.0694693e-38
0.43741736 0.26949596 0.60999906 1.0694693e-38
0.44493139 0.26943439 0.60999924 1.0694693e-38
0.4516308 0.26934302 0.60999924 1.0694693e-38
0.45821917 0.26963967 0.60999936 1.0694693e-38
0.46507508 0.26954839 0.60999936 1.0694693e-38
0.47201252 0.269456 0.60999948 1.0694693e-38
0.47903284 0.26936254 0.60999954 1.0694693e-38
0.48574033 0.27032822 0.60999954 1.0694693e-38
0.49217242 0.27207065 0.60999954 1.0694693e-38
0.54291338 0.26996127 0.60999978 1.0694693e-38
0.54939091 0.26946667 0.61000001 1.0694693e-38
0.55642784 0.26937893 0.61000001 1.0694693e-38
0.56342155 0.26971364 0.61000007 1.0694693e-38
0.57055736 0.2694155 0.61000001 1.0694693e-38
0.57761079 0.26940969 0.61000013 1.0694693e-38
0.58401942 0.26946253 0.61000019 1.0694693e-38
0.59139031 0.26958847 0.61000025 1.0694693e-38
0.5986008 0.26946986 0.61074966 9.9578469e-39
0.6031372 0.26705813 0.61000031 1.0694693e-38
0.71299666 0.27072215 0.61000103 1.0694693e-38
0.71785408 0.2694267 0.61000109 1.0694693e-38
0.7246781 0.26938203 0.61000109 1.0694693e-38
0.73072755 0.26976168 0.61000115 1.0694693e-38
0.73880321 0.26950142 0.61000115 1.0694693e-38
0.74558926 0.26915178 0.61000127 1.0694693e-38
0.75181776 0.26953605 0.61000139 1.0694693e-38
0.76037955 0.26957723 0.61000144 1.0694693e-38
0.7669273 0.26944128 0.61000139 1.0694693e-38
0.77353787 0.26930368 0.6100015 1.0694693e-38
0.78090876 0.26925659 0.61000156 1.0694693e-38
0.7874456 0.26965073 0.61000156 1.0694693e-38
0.79495639 0.26960495 0.61000162 1.0694693e-38
0.80159235 0.26967242 0.61000162 1.0694693e-38
0.8090663 0.26949543 0.61000162 1.0694693e-38
0.81486821 0.26943552 0.61000174 1.0694693e-38
0.82191825 0.26929337 0.61000192 1.0694693e-38
0.82956964 0.26979372 0.6100018 1.0694693e-38
0.83531654 0.26926059 0.61000192 1.0694693e-38
0.84335136 0.26955289 0.61000198 1.0694693e-38
0.85041893 0.26962188 0.61000198 1.0694693e-38
0.85698253 0.26948234 0.61000204 1.0694693e-38
0.86418092 0.26955199 0.6100021 1.0694693e-38
0.33298603 0.27657944 0.60999858 1.0694693e-38
0.33981091 0.27631515 0.60999858 1.0694693e-38
0.34672627 0.27632639 0.60999864 1.0694693e-38
0.35373405 0.27661934 0.60999864 1.0694693e-38
0.36083603 0.27663314 0.60999864 1.0694693e-38
0.36803421 0.27664754 0.6099987 1.0694693e-38
0.37459493 0.2764886 0.6099987 1.0694693e-38
0.38111565 0.27646652 0.60999876 1.0694693e-38
0.38865498 0.27648157 0.60999876 1.0694693e-38
0.39549518 0.27650344 0.60999882 1.0694693e-38
0.40244174 0.27644914 0.60999876 1.0694693e-38
0.40960908 0.27634603 0.61013991 1.05103e-38
0.41658422 0.27656534 0.60999894 1.0694693e-38
0.42386377 0.27646935 0.609999 1.0694693e-38
0.43031865 0.27641991 0.609999 1.0694693e-38
0.43755713 0.27663305 0.60999918 1.0694693e-38
0.44506249 0.27649808 0.60999912 1.0694693e-38
0.45176339 0.27644786 0.60999936 1.0694693e-38
0.45859793 0.27658972 0.60999936 1.0694693e-38
0.46545839 0.27653944 0.60999936 1.0694693e-38
0.47240031 0.27648863 0.60999942 1.0694693e-38
0.47942531 0.27643716 0.60999954 1.0694693e-38
0.48653486 0.27638516 0.60999954 1.0694693e-38
0.49368909 0.27653188 0.6099996 1.0694693e-38
0.50081003 0.27748248 0.6099996 1.0694693e-38
0.50725216 0.27885041 0.60999966 1.0694693e-38
0.53180057 0.27913409 0.60999978 1.0694693e-38
0.5360992 0.27746329 0.60999978 1.0694693e-38
0.54255116 0.27659583 0.60999978 1.0694693e-38
0.54954362 0.27667663 0.61000001 1.0694693e-38
0.55654609 0.27650094 0.61000001 1.0694693e-38
0.56332648 0.27649364 0.61008418 1.0694693e-38
0.57037663 0.27640653 0.61000001 1.0694693e-38
0.57777023 0.2764973 0.61000013 1.0694693e-38
0.5840196 0.27659807 0.61000013 1.0694693e-38
0.59147775 0.27651641 0.6102981 1.0510302e-38
0.59680814 0.27485698 0.61098701 9.9582056e-39
0.70543486 0.27970135 0.61000103 1.0694693e-38
0.71097487 0.27638704 0.61000103 1.0694693e-38
0.71808648 0.27634299 0.61000109 1.0694693e-38
0.72449416 0.27654177 0.61000109 1.0694693e-38
0.73122394 0.27640578 0.61000115 1.0694693e-38
0.73854065 0.27655321 0.61000121 1.0694693e-38
0.74539983 0.27641648 0.61000127 1.0694693e-38
0.75232887 0.2762779 0.61000139 1.0694693e-38
0.75988746 0.27674979 0.61000144 1.0694693e-38
0.7669273 0.27628747 0.61000144 1.0694693e-38
0.77378899 0.27649114 0.6100015 1.0694693e-38
0.78071004 0.27669847 0.61000156 1.0694693e-38
0.78798211 0.27655786 0.61000156 1.0694693e-38
0.79455143 0.27665526 0.61000162 1.0694693e-38
0.80213839 0.27664524 0.61000162 1.0694693e-38
0.8090663 0.27653798 0.61000162 1.0694693e-38
0.81486815 0.27650514 0.61000174 1.0694693e-38
0.82248002 0.27636027 0.61000192 1.0694693e-38
0.82935762 0.27645904 0.61000186 1.0694693e-38
0.8357439 0.27634993 0.61000192 1.0694693e-38
0.84274721 0.27644989 0.61000198 1.0694693e-38
0.85085475 0.27678096 0.61000198 1.0694693e-38
0.85676289 0.27626801 0.61000204 1.0694693e-38
0.86449087 0.2764841 0.6100021 1.0694693e-38
0.33293384 0.28360623 0.60999864 1.0694693e-38
0.33970532 0.28339621 0.60999864 1.0694693e-38
0.34672627 0.28330955 0.60999864 1.0694693e-38
0.35373417 0.28350857 0.60999864 1.0694693e-38
0.36089572 0.28357175 0.60999864 1.0694693e-38
0.36803386 0.28348753 0.6099987 1.0694693e-38
0.374479 0.2834779 0.6099987 1.0694693e-38
0.38117778 0.28339246 0.60999876 1.0694693e-38
0.38871777 0.28345606 0.60999876 1.0694693e-38
0.39557537 0.28344575 0.60999876 1.0694693e-38
0.40250599 0.2835122 0.60999876 1.0694693e-38
0.40963894 0.28325856 0.61003768 1.0694693e-38
0.41651478 0.28341484 0.60999888 1.0694693e-38
0.4235588 0.28340429 0.609999 1.0694693e-38
0.4300102 0.2833946 0.609999 1.0694693e-38
0.43741357 0.28360739 0.60999906 1.0694693e-38
0.44474614 0.28356326 0.60999912 1.0694693e-38
0.45144331 0.28355432 0.60999924 1.0694693e-38
0.45821911 0.28354529 0.60999936 1.0694693e-38
0.46507508 0.2835362 0.60999942 1.0694693e-38
0.47201252 0.2835269 0.60999954 1.0694693e-38
0.47903284 0.28351754 0.60999954 1.0694693e-38
0.48613754 0.28350806 0.6099996 1.0694693e-38
0.4933283 0.2834985 0.6099996 1.0694693e-38
0.5006066 0.28348878 0.6099996 1.0694693e-38
0.50797391 0.28347901 0.6099996 1.0694693e-38
0.51432651 0.28440204 0.60999966 1.0694693e-38
0.52129638 0.28509 0.60999972 1.0694693e-38
0.5291602 0.2838085 0.60999972 1.0694693e-38
0.5358175 0.2837745 0.60999972 1.0694693e-38
0.54266691 0.28364003 0.60999978 1.0694693e-38
0.54939115 0.28363231 0.60999984 1.0694693e-38
0.55619246 0.28362423 0.61000001 1.0694693e-38
0.5632658 0.28348604 0.61000007 1.0694693e-38
0.57049692 0.28360692 0.61000001 1.0694693e-38
0.57777017 0.28331423 0.61000013 1.0694693e-38
0.5841918 0.28364503 0.61041909 1.0326629e-38
0.59021258 0.28267905 0.61080867 1.0234434e-38
